# .PCD v0.7 - Point Cloud Data file format
VERSION 0.7
FIELDS x y z intensity
SIZE 4 4 4 4
TYPE F F F F
COUNT 1 1 1 1
WIDTH 1384
HEIGHT 1
VIEWPOINT 0 0 0 1 0 0 0
POINTS 1384
DATA ascii
12.272591 14.657015 -1.9429862 60
23.697105 14.747362 -1.9096253 222
30.552914 14.621151 -1.8093867 332
30.624903 14.690495 -1.8108368 388.5
5.1638498 14.80682 -1.9508682 64
5.7747355 14.974775 -1.9219592 116
7.6983266 14.853193 -1.9323486 36
8.9632206 14.986802 -1.9248171 32
11.471331 14.985441 -1.9556839 65
12.540217 14.831268 -1.9682652 55
23.778267 14.825928 -1.9365115 439
23.908823 14.943174 -1.9368033 209
1.3903208 15.141733 -1.9837404 41
6.6492276 15.078474 -1.9205139 105
11.777675 15.109825 -1.950052 70
11.859266 15.129173 -1.9637756 123
12.824634 15.010431 -1.9674537 81
24.049271 15.075295 -1.9461079 263
24.225718 15.198239 -1.9234594 259
4.204042 15.326753 -1.9724422 81
7.2914758 15.323019 -1.9274499 171
8.055439 15.200106 -1.9244782 63
24.302984 15.239752 -1.9380044 366
30.98204 15.202535 -1.8269646 240
2.1417081 15.489371 -1.990849 76
5.8902507 15.479399 -1.9636468 71
7.8458495 15.523761 -1.9249642 850
8.5286064 15.509945 -1.9495682 39
12.25045 15.552608 -1.9519422 96
12.56334 15.432955 -1.9505903 39
13.264139 15.513304 -1.958487 69
24.568201 15.473827 -1.9255403 191
24.70677 15.558928 -1.9265161 360
24.800163 15.59512 -1.897364 89
5.8415952 15.789 -1.9665095 96
6.8780198 15.697176 -1.9113487 93
9.8000889 15.701492 -1.9339623 26
12.979832 15.683594 -1.9692241 50
24.753731 15.624132 -1.9362991 168
24.881226 15.734219 -1.9313651 306
6.3559599 15.994259 -1.9843277 128
8.1271362 15.968923 -1.9429505 140
9.9626741 15.966773 -1.9590813 49
11.432876 15.861595 -1.9580299 68
12.529993 15.898735 -1.9560921 42
13.934732 15.833664 -1.9561698 21
25.16799 15.918711 -1.9061928 224
25.205362 15.935045 -1.9067389 346
32.456161 15.913774 -1.8196777 252
6.6505723 16.172592 -1.9790372 77
12.89933 16.008883 -1.9677994 90
25.370228 16.116066 -1.9331833 132
25.487762 16.190042 -1.9120358 282
6.5272713 16.343307 -1.9782565 81
9.3551378 16.231445 -1.9605315 44
11.281348 16.368893 -1.9463099 107
12.589011 16.246029 -1.9719499 72
13.788423 16.272093 -1.9344137 17
14.511309 16.36043 -1.9335701 16
25.532173 16.236259 -1.9179838 236
25.739697 16.367485 -1.9282868 345
9.4767113 16.450806 -1.9623111 85
10.195521 16.48243 -1.9552736 56
10.626581 16.543825 -1.9645413 116
13.206145 16.463888 -1.9757873 35
25.874582 16.470402 -1.9275723 302
7.5049944 16.788322 -1.9891737 84
7.6795216 16.611416 -1.8455778 36
8.1238947 16.671484 -1.8657377 96
8.9051304 16.741665 -1.968201 22
9.773222 16.78607 -1.9485654 71
11.981677 16.734438 -1.9630947 36
14.885122 16.702639 -1.9974647 24
15.316063 16.742468 -1.9905702 63
26.257704 16.781929 -1.9353691 228
7.0340648 16.91214 -1.9862672 53
10.149428 16.8848 -1.9443624 103
10.231468 16.948244 -1.9560853 151
13.675363 16.867596 -1.9754407 43.5
13.900477 16.875853 -1.9821008 101
26.323193 16.833881 -1.9394739 271
26.463413 16.910412 -1.9268168 226
5.9527559 17.142561 -1.9857451 50
8.7654724 17.180775 -1.8187156 49
14.799284 17.152481 -1.9794704 18
26.696907 17.124735 -1.9408731 305.33334
-2.0089521 17.238161 -1.9849362 26
10.6922 17.345001 -1.9561552 98
11.575191 17.221924 -1.9679669 103
14.317666 17.290855 -1.9794148 93
14.512854 17.351517 -1.9774958 65
15.429132 17.23201 -1.9990327 15
26.938061 17.338095 -1.9447467 332
8.3556318 17.469334 -1.9883417 82
9.2309942 17.489508 -1.9718251 61
9.7472534 17.568197 -1.987178 91
14.480866 17.540981 -1.9820741 137
27.083336 17.404678 -1.9333262 116
27.281054 17.57361 -1.9400318 252
-6.625185 17.75708 -1.9267004 67
-0.0020897165 17.747791 -1.980943 38
8.7654648 17.658529 -1.8155136 246
10.311922 17.725649 -1.9553819 82
11.163359 17.642035 -1.9677157 137
14.260167 17.72044 -1.9952642 111
14.758994 17.665438 -1.9856801 56
14.985027 17.707375 -1.9897039 111
16.105131 17.603083 -1.9919218 15
27.464806 17.699772 -1.9270327 231
8.5048046 17.898449 -1.9046881 72
9.6904221 17.830645 -1.9646516 97
10.61717 17.816925 -1.9588785 150
10.971933 17.993685 -1.9712768 359
12.517958 17.985819 -1.9794366 116
27.585049 17.848642 -1.9492154 228
27.648239 17.89094 -1.9482286 294
27.806684 17.984383 -1.9477404 512
28.487162 17.972164 -1.8360908 242
36.226482 17.82444 -1.8056939 420
11.687573 18.127758 -1.9495211 57
14.222168 18.144131 -1.9879627 52
14.53203 18.192797 -1.9791042 29
15.478799 18.180582 -1.9904011 114
27.891287 18.078224 -1.9401443 342
28.003027 18.127897 -1.9372032 592
35.399635 18.035522 -1.8057327 136
10.320517 18.340363 -1.9174695 90
10.707141 18.224035 -1.9910312 118
12.127735 18.378124 -1.9708142 32
28.160734 18.310944 -1.9471831 129
28.252598 18.355436 -1.9464362 238
28.526897 18.27335 -1.8805621 232
9.4902134 18.595543 -1.991431 65
10.242703 18.440926 -1.844105 235
28.449875 18.523643 -1.9399165 331
-6.0864763 18.706102 -1.8143775 170
-5.3938751 18.777658 -1.921723 65
10.652195 18.653625 -1.8305889 114
10.904188 18.764809 -1.9354554 124
12.603252 18.682531 -1.9603512 63
12.836623 18.737892 -1.9876766 77
13.418125 18.787125 -1.9926336 25
16.551161 18.638041 -1.9905204 38
28.554371 18.610411 -1.9393873 259.5
0.76073456 18.857731 -1.9873933 44
13.738539 18.881744 -1.9666723 46
15.182885 18.846975 -1.9826269 32
28.872915 18.831491 -1.9326019 331
29.959888 18.956741 -1.8010901 247
9.0148115 19.009493 -1.8784834 37
11.05115 19.026722 -1.8469831 316
11.314732 19.021976 -1.949862 78
13.084965 19.123568 -1.9804585 53
13.986525 19.0854 -1.973007 78
29.102049 19.040728 -1.9462509 141
29.527674 19.135948 -1.8996099 200
11.600885 19.288036 -1.948602 86
29.38755 19.257807 -1.9351356 291.5
29.542574 19.379749 -1.9434657 307.5
2.5534375 19.553165 -1.9564296 17
10.095899 19.510872 -1.8440301 169
11.859226 19.532393 -1.8354455 200
12.007537 19.562712 -1.9474261 20
14.455869 19.548298 -1.9960903 31
29.58213 19.423855 -1.9432684 277
12.146385 19.652203 -1.8132378 186
12.304436 19.758545 -1.8015825 274
13.316199 19.687952 -1.989369 359
14.220753 19.75156 -1.9722812 112
14.51367 19.649887 -1.9953103 51
30.015802 19.75745 -1.9461672 257.75
14.117625 19.939411 -1.9818963 40
30.464382 19.852242 -1.8860978 185
12.58893 20.036554 -1.8865802 67
12.767729 20.183285 -1.8800195 84
14.276457 20.157204 -1.9915224 370
30.470985 20.122696 -1.9391203 270
31.622051 20.098429 -1.8020332 279
39.230751 20.047766 -1.814769 353
11.175415 20.220797 -1.8647513 89
14.462809 20.378189 -1.9919165 141
15.517174 20.340176 -1.9846532 34
30.737846 20.315525 -1.9496847 173
31.351852 20.224083 -1.8875943 423
13.65033 20.449011 -1.9966991 13
30.918854 20.481104 -1.9292638 166
11.002851 20.641962 -1.9765408 23
13.54651 20.677528 -1.9301038 113
15.464529 20.734518 -1.9947691 126
31.186764 20.664225 -1.9474589 304
31.200306 20.680683 -1.9592375 362
-2.5786247 20.876318 -1.9579676 85
3.655158 20.870865 -1.9935664 72
12.287436 20.892693 -1.8953618 56
13.58031 20.824377 -1.8269444 459
13.682305 20.857885 -1.9188329 100
15.48078 20.808641 -1.9794021 64
31.497482 20.959167 -1.9499975 238
-2.1521626 21.092525 -1.9389149 66
31.707151 21.100332 -1.9570785 320
32.775383 21.183964 -1.8141526 38
-1.9462738 21.268665 -1.9020021 132
31.916592 21.253788 -1.9456441 377
32.014565 21.359911 -1.978416 293
32.361294 21.324303 -1.8930531 191
-2.0071831 21.41477 -1.872834 119
4.1042256 21.503887 -1.835495 21
14.599953 21.51659 -1.9677815 79
20.323702 21.435282 -1.9953569 26
32.210278 21.494177 -1.9684507 338
32.499279 21.466164 -1.8969346 249
41.855469 21.401489 -1.8035147 438
-2.0350194 21.753197 -1.8269576 161
-1.3642769 21.66671 -1.9558803 87
4.6740694 21.600462 -1.8319545 91
39.747166 21.710672 -1.8056244 126
41.54422 21.734426 -1.8014257 356
18.840317 21.993128 -1.9942428 27
32.777664 21.970276 -1.9664786 273
33.093773 21.930073 -1.8960803 178
41.897778 21.968758 -1.8371425 431
42.24958 21.869608 -1.8084505 336
-0.97080421 22.123222 -1.8743541 133
32.885925 22.02767 -1.960566 316.66666
39.421646 22.177494 -1.8247082 194
41.525532 22.013094 -1.8112544 38
42.091652 22.03401 -1.8421708 352
-1.4847059 22.242132 -1.819521 149
33.183369 22.247721 -1.9736791 633
33.354919 22.365559 -1.9604216 274
33.93486 22.341629 -1.8341792 331
40.45042 22.206259 -1.8121927 252
42.001263 22.300018 -1.8311993 352
5.5753245 22.467199 -1.9148697 41
13.374375 22.509638 -1.9779894 13
15.783821 22.462517 -1.8479315 212
33.558693 22.564119 -1.9703102 358
39.175579 22.534899 -1.864594 102
41.698051 22.566742 -1.8171911 404
41.880291 22.444101 -1.8172399 220
42.028938 22.530128 -1.8067015 431
33.665611 22.645653 -1.9471068 129
34.013622 22.651262 -1.8838922 179
41.070858 22.660938 -1.819293 194.5
41.862595 22.639906 -1.8090867 364
18.063295 22.882435 -1.9880842 46
33.94722 22.856646 -1.9666739 232
34.089504 22.97628 -1.9832039 402.5
40.891647 22.834236 -1.8190318 381
41.383404 22.881615 -1.8322393 272
46.941887 22.922298 -1.8290157 349
0.20888257 23.115206 -1.8612983 218
34.171844 23.060873 -1.9675658 164
38.820621 23.037476 -1.8348519 227
34.529434 23.334429 -1.987007 257
38.588188 23.384748 -1.8439231 207
43.680538 23.346199 -1.8462799 307
1.0547581 23.55904 -1.9207821 171
18.800196 23.457062 -1.9922251 64
34.736206 23.452871 -1.9642638 157
35.500111 23.441153 -1.800927 52
44.254768 23.53734 -1.8959488 299
44.443409 23.598373 -1.8942959 248
48.44693 23.529987 -1.8283808 220
0.85673141 23.678446 -1.848942 52
1.1362782 23.666718 -1.8943958 101
38.454395 23.660686 -1.8415923 344
39.037788 23.796818 -1.8440874 512
40.415424 23.725178 -1.8268188 187
7.0051336 23.829575 -1.834331 21
35.194473 23.850769 -1.9675809 312
35.373581 23.955967 -1.9545355 157
39.125813 23.818264 -1.8321158 376
40.239052 23.968201 -1.8718518 303
45.396423 23.83852 -1.8204569 19
46.003414 23.851749 -1.8323165 178
35.500351 24.103231 -1.9760326 237
38.575439 24.122929 -1.8156769 446.5
45.392044 24.023212 -1.9379489 183
46.352348 24.066765 -1.8419628 199
47.509068 24.153591 -1.900528 27
47.788998 24.190922 -1.8309045 269
35.652512 24.224716 -1.9702789 289.5
1.6331618 24.514595 -1.8849614 137
1.8403416 24.553711 -1.8895251 119
2.1297989 24.417545 -1.9512906 136
35.922878 24.435526 -1.9700618 263.33334
38.976055 24.436646 -1.8829552 350
46.083012 24.477076 -1.9292567 21
1.3103676 24.628777 -1.8680488 69
2.0534444 24.622 -1.8141465 46
2.2734218 24.651279 -1.8310204 197
2.5190127 24.629362 -1.910948 223
9.1130314 24.791744 -1.9671361 22
36.328415 24.762159 -1.9765604 347
46.498066 24.717981 -1.9643159 160
2.8175411 24.834118 -1.8552983 115
38.857533 24.976917 -1.873301 267
36.996849 25.030592 -1.9134728 195
37.049152 25.075455 -1.9307101 233
36.954132 25.272594 -1.9910977 288
37.027058 25.322014 -1.9844962 235
38.225163 25.366451 -1.8407925 38
37.296764 25.531242 -1.985032 384
38.717369 25.489708 -1.8735169 280
38.897266 25.47924 -1.8983866 322
40.67746 25.485277 -1.9306092 95
41.281937 25.566851 -1.8098285 357
49.189289 25.578058 -1.9443696 47
3.6753054 25.707163 -1.8825709 163
37.533016 25.690052 -1.9646347 294
41.051369 25.715704 -1.839569 154
41.220589 25.673609 -1.836027 208
50.775463 25.759048 -1.9342582 237
37.728184 25.829416 -1.9663578 433
38.070457 25.850763 -1.9151561 385
38.741589 25.918467 -1.9002169 323
4.7172871 26.116848 -1.9105972 114
37.931511 26.044971 -1.9849379 231
38.102173 26.182035 -1.9673539 171
39.716167 26.089851 -1.9218024 165
20.613798 26.382084 -1.881253 218
38.288048 26.290945 -1.9783069 283
38.473644 26.213915 -1.9348353 270
38.764175 26.363831 -1.9233983 376
50.909538 26.344059 -1.8288333 408.5
51.484486 26.202059 -1.8625715 357
5.2674408 26.44047 -1.917068 98
39.132343 26.426846 -1.9359109 267
41.730095 26.566059 -1.9393883 164
5.2996721 26.748302 -1.8058848 217
5.5972996 26.784986 -1.9264241 187
5.7833576 26.781578 -1.9775574 171
5.8047962 26.778559 -1.9936585 110
41.863247 26.642687 -1.9246465 120
42.156918 26.659592 -1.9198649 260
42.986256 26.721476 -1.8239472 554
5.3669095 26.890413 -1.8189207 106
5.4396343 26.957279 -1.8629053 97
38.964478 26.849264 -1.9845252 334
39.009598 26.909395 -1.9956263 201
42.480141 26.821232 -1.8987097 246
51.032654 26.910038 -1.8780129 270
51.347294 26.981409 -1.8390963 364
5.4673157 27.00815 -1.8872111 36
39.273022 27.083498 -1.9799197 198
40.090797 27.074987 -1.9403555 336
40.273773 27.103258 -1.9334342 217
41.046322 27.266298 -1.9158591 24
19.61982 27.512995 -1.8818752 155
39.701069 27.426273 -1.9918165 373.5
39.943554 27.583992 -1.977317 97
6.5001411 27.7493 -1.9210303 133
40.07666 27.700653 -1.9434271 74
40.500229 27.659294 -1.9364653 324
41.477745 27.715599 -1.9390963 98
44.074417 27.638971 -1.8006181 114
51.972576 27.678551 -1.857064 384
6.6749363 27.952768 -1.9207946 145
40.181423 27.812475 -1.9870933 292
40.242821 27.855236 -1.9740251 188
40.709476 27.802553 -1.9327079 337
42.872643 27.967634 -1.9129627 56
43.962582 27.902733 -1.861222 385
51.50383 27.89418 -1.8757221 298
6.5794249 28.080772 -1.8731135 37
40.548763 28.076717 -1.9810455 325
7.7784605 28.264761 -1.9280469 68
7.9044981 28.325397 -1.8764265 93.714287
40.728584 28.225084 -1.9623685 333
41.003975 28.384884 -1.9237508 60
41.382889 28.365253 -1.9304338 340
41.40971 28.376362 -1.9507246 632
42.580475 28.329672 -1.9225107 103
3.7141676 28.483364 -1.8428805 54
8.0953369 28.502441 -1.8705438 89
8.2290325 28.475863 -1.9672217 87.5
41.054527 28.446758 -1.9783092 300
41.52803 28.456131 -1.9315773 219
44.293106 28.459209 -1.913797 113
44.801739 28.596411 -1.8236349 329
45.622124 28.556297 -1.8548099 137
41.314678 28.667633 -1.9689368 92
41.475166 28.784897 -1.9714153 298
44.830345 28.65119 -1.8326378 311.5
45.042252 28.69693 -1.8228012 307
41.588718 28.930265 -1.9723525 144
41.610062 28.948738 -1.9714278 218
41.929214 28.941662 -1.8988122 250.5
42.017025 28.992764 -1.8863271 382
46.322525 28.802084 -1.8270037 207
46.488464 28.971664 -1.8388885 299
52.983437 28.869759 -1.8199325 291
5.1530752 29.010193 -1.989997 77
8.9703979 29.183437 -1.9793873 159
41.934723 29.178125 -1.9615732 122
42.046471 29.009285 -1.8834091 552
44.997486 29.132507 -1.9031924 145
45.298714 29.121801 -1.9192009 258
46.490421 29.058603 -1.8308032 282
42.14035 29.205095 -1.9097042 71
42.21265 29.393383 -1.9918631 322
44.100166 29.391506 -1.9219918 82
45.812553 29.38899 -1.8707443 347
8.9085579 29.518005 -1.950253 112
42.434662 29.562931 -1.9996699 462
43.665119 29.41164 -1.9750047 24
52.972832 29.593706 -1.8232577 223
9.4124479 29.610168 -1.9810802 178
42.481583 29.621035 -1.9938194 213
46.027157 29.698456 -1.8607905 147
46.289452 29.798409 -1.8198674 153
42.879021 29.907389 -1.9785964 294.5
43.239487 29.966187 -1.8936933 397
46.443447 29.886997 -1.8504931 340.5
46.664341 29.92543 -1.8385699 201
6.1974521 30.111118 -1.9441614 67
8.2895489 30.045952 -1.9764751 70
9.1297913 30.023418 -1.9648402 81
10.087341 30.05559 -1.9034542 131.5
43.062531 30.030996 -1.958362 131
43.499382 30.122637 -1.9024966 260
45.483562 30.192678 -1.9043311 55
43.281857 30.231804 -1.9842694 214
43.403973 30.357927 -1.9723792 211
46.724751 30.245163 -1.9195005 267
47.480312 30.310152 -1.8028383 172
7.0401936 30.447908 -1.9990115 124
43.578007 30.487324 -1.986231 296
43.720066 30.532467 -1.9869007 443
45.629597 30.549831 -1.9087946 27
46.882717 30.530636 -1.9279325 171
43.77269 30.63615 -1.9674619 81
47.618366 30.771458 -1.8579794 343
11.893992 30.958042 -1.8506813 128
44.238571 30.993507 -1.9891038 281
44.473763 30.87863 -1.9307494 433
45.000923 30.995913 -1.9296713 406
45.430527 30.824997 -1.9428374 30
47.237465 30.874147 -1.9323295 155
48.106285 30.847828 -1.808356 324
53.822689 30.824242 -1.8154768 427
11.132591 31.189137 -1.9781694 87
11.570898 31.168575 -1.9021089 101.5
11.806802 31.032104 -1.8470043 118.33334
44.29121 31.017523 -1.9802934 255
44.667114 31.085098 -1.9206628 107
45.564571 31.084705 -1.9257904 239
47.931435 31.070522 -1.8576165 315
48.225491 31.158463 -1.8319927 357
11.639278 31.211313 -1.8395451 149
11.991539 31.278261 -1.9312344 169
12.11475 31.322248 -1.8528442 119
44.586178 31.2533 -1.9772551 408
45.061069 31.296457 -1.9253709 240
45.916229 31.325375 -1.9212561 87
44.791691 31.416636 -1.9632883 273
44.862247 31.467136 -1.9725827 183.5
45.502499 31.409672 -1.9312569 270
47.21743 31.576183 -1.9223297 99
12.313159 31.675285 -1.9400765 177.33333
12.465233 31.776814 -1.9109701 171
12.917634 31.656265 -1.8467798 169
13.116038 31.664587 -1.8398889 174
45.102463 31.640604 -1.9625483 255
45.227367 31.764553 -1.9760505 229
46.781471 31.699245 -1.9260143 101
48.846115 31.744497 -1.8252975 345.66666
49.0504 31.751247 -1.8031738 355
12.901968 31.84322 -1.8884012 160
47.151207 31.977383 -1.9659395 564
48.347527 31.859978 -1.9263682 111
48.908577 31.806885 -1.8013436 177
13.538626 32.154732 -1.8890352 188.5
13.664828 32.118378 -1.8422115 189.5
45.606789 32.030762 -1.9828339 293.5
46.269382 32.1763 -1.9438989 236
46.493336 32.174828 -1.9452461 464
46.922165 32.120743 -1.9381573 56
47.131199 32.073544 -1.9501495 383.33334
48.778419 32.162888 -1.9380586 155
46.073795 32.301414 -1.954741 305
46.304005 32.303101 -1.915657 168.66667
46.732357 32.359146 -1.8152325 158.5
49.31115 32.290459 -1.9170387 288
54.546848 32.223282 -1.8088652 165
14.254808 32.546288 -1.8519872 173.8
46.081257 32.433342 -1.9846256 97
46.826691 32.565086 -1.9006718 34
49.514587 32.491283 -1.9157143 223
54.316544 32.570763 -1.8638704 208
14.265814 32.605053 -1.841953 206.5
14.563412 32.790615 -1.8629256 92
46.312756 32.609978 -1.9957247 316
46.467743 32.706169 -1.9844117 303.5
46.778091 32.643696 -1.843901 41
47.045792 32.743275 -1.9628378 517.33331
48.785114 32.666908 -1.9238868 92
50.668533 32.720039 -1.8047867 256
53.039536 32.771675 -1.8499616 343
14.159874 32.83625 -1.9100654 196
14.564679 32.906116 -1.9237814 151.66667
50.16325 32.908329 -1.9042687 233
50.319427 32.821327 -1.8301032 328
50.64653 32.970093 -1.8073404 198
14.559239 33.139572 -1.8764602 235
14.867397 33.195248 -1.8921942 208
46.98172 33.116669 -1.9761953 270.5
47.068298 33.148319 -1.9782013 545
47.868237 33.174934 -1.9252021 407
54.022976 33.02438 -1.8864011 103
14.753302 33.27763 -1.945562 112
14.932743 33.3871 -1.9290758 201
15.003923 33.370018 -1.9874382 170
48.421402 33.294083 -1.9310323 174
53.381859 33.252808 -1.8370523 256
53.818291 33.215458 -1.869578 411
15.107521 33.50721 -1.8710696 117
21.146605 33.550861 -1.959957 24
47.478901 33.51379 -1.9846723 322
53.725151 33.468422 -1.8818976 284
15.074588 33.656937 -1.9357251 76.666664
47.730877 33.706764 -1.9956717 241
47.846161 33.782921 -1.9692693 231
53.568943 33.77026 -1.8316417 380
55.035732 33.618866 -1.806265 583
47.93195 33.835491 -1.9746314 479
50.399567 33.846107 -1.9098772 97
51.764374 33.894817 -1.8372567 350
15.648188 34.196178 -1.9928963 124
48.160973 34.004707 -1.9825426 405
48.320885 34.137177 -1.9605812 283
53.320721 34.106243 -1.8068 212
21.920753 34.248547 -1.9013293 22
48.495045 34.27124 -1.9798362 443.5
48.94173 34.361954 -1.9224002 322
50.422813 34.215454 -1.9403102 347
55.516846 34.365147 -1.8209604 158
49.554634 34.510994 -1.9114351 162
49.792309 34.400711 -1.9017777 294
50.048218 34.568588 -1.8659041 251
52.214554 34.544884 -1.8961257 189
48.993336 34.638863 -1.9507759 184
49.042126 34.714405 -1.9776988 242.5
50.748028 34.735817 -1.8931489 388.5
55.319859 34.651306 -1.8596432 239
17.071115 34.948479 -1.9452413 91
49.298569 34.895622 -1.9639258 173.5
49.448944 34.993126 -1.9908376 468
49.602432 34.840691 -1.9124409 319
49.819527 34.870796 -1.9201621 385
50.433544 34.864799 -1.8980669 345
51.175743 34.975811 -1.885181 402
17.247063 35.032497 -1.9174342 114
50.204643 35.034389 -1.9027243 317
50.726219 35.186497 -1.9056938 525
54.992176 35.104149 -1.8375778 20
49.761425 35.247051 -1.9631757 287
49.879028 35.305145 -1.9671289 294
50.29158 35.334362 -1.897983 283.66666
50.488392 35.327721 -1.896428 223
51.369392 35.222919 -1.8942273 643
53.50927 35.32885 -1.8796546 308
54.902939 35.339684 -1.8360002 428
17.666237 35.579727 -1.9240447 93
50.525574 35.456478 -1.8930242 98
50.765644 35.567612 -1.9311752 396
50.945114 35.465492 -1.8678319 307
51.255497 35.535961 -1.9081366 323
51.810059 35.414471 -1.8845079 168
54.541271 35.445877 -1.8185115 310
54.920563 35.484467 -1.8393362 186
50.337997 35.649216 -1.9584154 248.5
50.476971 35.756821 -1.9695234 273
52.347221 35.775589 -1.9120605 134
52.845715 35.64996 -1.8776193 96
23.983845 35.950447 -1.8289428 208
50.691742 35.931908 -1.9604114 228
53.960091 35.894039 -1.8817383 177
54.476379 35.905056 -1.8112559 422
18.427395 36.10194 -1.9943618 41
51.360435 36.096169 -1.9114163 772
51.524475 36.193596 -1.8993268 228
51.823799 36.03862 -1.8941729 515
52.004623 36.017384 -1.884459 312
54.805828 36.102154 -1.8110151 404
19.736742 36.307888 -1.9103212 99
24.510437 36.257557 -1.8240794 26.5
51.279903 36.320793 -1.9630975 300.5
52.268742 36.314911 -1.9037774 446
53.641422 36.301296 -1.8615639 32
53.88345 36.227657 -1.8726938 54
54.893051 36.221249 -1.8048055 421
18.960672 36.443092 -1.9790248 38
19.560513 36.552116 -1.8630035 104.5
19.864536 36.468735 -1.8744049 188
20.056347 36.439911 -1.8396889 100
20.308138 36.40377 -1.8106492 211
51.516403 36.485485 -1.972693 607
51.781689 36.428066 -1.9057269 482
51.830219 36.464035 -1.8811003 426
52.93866 36.467037 -1.9279356 301
53.14732 36.50885 -1.883052 164
54.844711 36.494316 -1.8607345 176
19.542337 36.657936 -1.9269748 106.5
19.776794 36.638611 -1.931609 122
20.093403 36.742844 -1.8882099 207.5
24.916121 36.608707 -1.8437977 49
51.842964 36.759262 -1.9609406 176
52.696915 36.611702 -1.8463095 89
20.303551 36.8256 -1.9341365 184
20.401709 36.895287 -1.9707563 154
20.718376 36.929543 -1.822952 192.5
20.878969 36.86348 -1.8235686 221
51.937904 36.831249 -1.9703078 318
52.141537 36.97683 -1.9553468 235
52.901711 36.85894 -1.9033558 260
54.459942 36.87299 -1.8869016 25
55.250027 36.894661 -1.8682679 146
56.711338 36.867634 -1.8251877 426.66666
20.339745 37.078941 -1.9102285 218
52.330723 37.046669 -1.9543314 411
53.476273 37.125511 -1.888129 191
56.945709 37.167709 -1.8596507 110
52.68399 37.328415 -1.9635473 283
52.963581 37.254173 -1.9065752 432
53.340729 37.245361 -1.9066486 391
53.51815 37.212112 -1.8907415 99
52.872879 37.478092 -1.9645529 306
53.345154 37.539001 -1.9134536 359
55.337246 37.510036 -1.8658037 77
21.098671 37.682335 -1.9322531 189
21.485352 37.737118 -1.9708971 175.66667
22.212158 37.725956 -1.8034298 224
53.203583 37.708862 -1.9489819 193
54.49025 37.69825 -1.8745147 200.5
21.717945 37.839127 -1.9245033 251
21.873566 37.885544 -1.8680222 210.5
26.768036 37.815414 -1.8732516 157
53.385086 37.836308 -1.9467354 297
53.52285 37.958668 -1.9546623 284.5
53.60297 37.980835 -1.9318744 138
22.228533 38.165081 -1.9665992 89
27.270308 38.037651 -1.9687647 21
53.80209 38.103374 -1.9284472 409
54.092205 38.028339 -1.8900061 451
54.284431 38.088554 -1.8515794 353.5
54.716541 38.153267 -1.8418192 231
56.161366 38.068081 -1.8768171 92
58.068535 38.142712 -1.8432845 147
21.988789 38.230919 -1.8928088 160
22.36484 38.31245 -1.9661134 233
22.505466 38.302536 -1.8664293 207.5
54.120651 38.380692 -1.9391215 269
54.357903 38.532715 -1.9422525 320
58.011555 38.594437 -1.8190106 70
22.53779 38.660297 -1.9011148 155
22.63382 38.789394 -1.9151176 103
54.571373 38.689999 -1.9416451 216
54.640568 38.734558 -1.9585479 573
55.720928 38.76939 -1.8787854 372
22.576719 38.871113 -1.9650589 90
22.642305 38.856659 -1.8703663 117.25
54.958374 38.972607 -1.9333501 329
55.899231 38.914192 -1.8731496 233.5
59.341194 38.835102 -1.8032503 264
22.480377 39.117863 -1.872579 135.5
55.053932 39.057877 -1.9398985 225
56.185829 39.040005 -1.8630539 94
56.377434 39.190773 -1.8801305 125
59.094357 39.06403 -1.8046757 353
55.475319 39.306023 -1.9428595 501
56.64035 39.345417 -1.8356107 58
29.771664 39.52771 -1.8460912 27
55.746941 39.534306 -1.9476371 271
57.315834 39.48587 -1.8382387 216
57.564178 39.568275 -1.8438635 119
57.864765 39.51178 -1.8175963 28
58.969543 39.443222 -1.8082488 75
55.940475 39.650558 -1.9253979 264
56.096703 39.774891 -1.9336991 242
58.155792 39.674618 -1.831691 274
56.428749 39.933239 -1.9137213 83
57.584511 39.818596 -1.8281041 88
24.770744 40.156086 -1.8407446 55
56.555847 40.085663 -1.9268944 218
56.609917 40.119305 -1.9343758 295.5
57.678909 40.120018 -1.8651075 381
57.94313 40.164223 -1.8210138 329
58.567226 40.170078 -1.8266892 412
57.056198 40.396721 -1.9231963 436
59.376892 40.222649 -1.827971 42
58.747253 40.550453 -1.8144758 188.5
58.814808 40.430199 -1.8242511 302
57.323097 40.61496 -1.9293766 293
57.50901 40.741096 -1.9141433 174
59.171532 40.606113 -1.8400115 332
31.47052 40.89888 -1.9172701 189
57.612793 40.824562 -1.9252311 279.5
57.820312 40.937252 -1.9018968 86
58.104752 40.907894 -1.8763008 374
58.442497 40.931763 -1.8656064 55
58.646618 40.877716 -1.8172053 426
59.630379 40.818584 -1.8226739 87
59.806114 40.827374 -1.8179412 276
58.136742 41.178364 -1.9023236 259
58.519958 41.180115 -1.833784 519.5
32.11713 41.389168 -1.9790679 16
58.188377 41.200191 -1.913224 326
58.255112 41.297928 -1.9273676 328
58.529911 41.228378 -1.821921 144.5
58.62085 41.340984 -1.8241701 253
26.822458 41.466881 -1.8632954 94
27.113972 41.577202 -1.8924141 134
30.754597 41.55521 -1.9646276 56
58.665775 41.567272 -1.9111804 454
60.477432 41.426018 -1.819127 82
26.700653 41.695465 -1.8990297 161.2
26.851074 41.63826 -1.9847939 281
27.150969 41.612019 -1.9227921 117
27.27951 41.674683 -1.8541517 98
27.452335 41.709095 -1.8147614 73
58.936394 41.764385 -1.9148159 310
59.260868 41.727089 -1.9108932 318
59.524902 41.733212 -1.8198112 236
23.275799 41.998978 -1.8957033 55
26.502745 41.819538 -1.992504 47
27.536572 41.805347 -1.8330296 238
27.714642 41.83783 -1.9541193 215
61.283222 41.977501 -1.8333956 31
27.795162 42.019619 -1.9956598 135
28.156374 42.115925 -1.8914629 141
59.275284 42.020954 -1.932587 288
28.182472 42.271404 -1.9001652 251
28.312496 42.222088 -1.8427229 236
59.927818 42.478886 -1.9233128 222.5
62.164463 42.521297 -1.8372613 76
34.455757 42.781006 -1.9872637 76
60.592224 42.937107 -1.8921742 178
60.649506 42.956871 -1.8971474 299
28.71674 43.007679 -1.8798416 230
28.919245 43.133347 -1.8081182 276
29.275749 43.058247 -1.9334962 75
60.794197 43.08197 -1.8893051 114
60.901657 43.158241 -1.8946551 203
63.011868 43.096954 -1.8310692 68
29.548676 43.316036 -1.8866618 242
29.7138 43.291042 -1.8136393 193.33333
61.142635 43.31176 -1.905269 411
29.713308 43.451206 -1.8970809 187
61.43285 43.515244 -1.8835155 237
61.859219 43.457977 -1.8487645 373
62.157951 43.488228 -1.8474678 274
29.67337 43.623096 -1.8026886 260
29.880102 43.650707 -1.9887291 151
61.669102 43.658855 -1.8636109 134
62.346172 43.786346 -1.8378205 282
30.132282 43.892986 -1.8918993 82
30.260965 43.926861 -1.8830962 119.5
61.935253 43.862476 -1.8889692 353
30.17074 44.062447 -1.8113544 142
30.298979 44.140495 -1.8708644 102
62.280472 44.110397 -1.8744999 233.25
30.149193 44.3134 -1.8446985 121
30.240808 44.298637 -1.9435434 84
62.554321 44.313694 -1.8821201 231.66667
62.689835 44.39679 -1.8848627 344
62.879887 44.518085 -1.8585413 223
37.147724 44.744953 -1.9164132 45
63.063534 44.658955 -1.8746032 235
63.308098 44.834324 -1.847665 73
63.496643 44.978062 -1.8926136 356
63.742588 45.147705 -1.8694801 221.5
63.902149 45.273499 -1.8655936 191.66667
64.045906 45.342953 -1.8689272 183
65.303062 45.294277 -1.8176467 349
36.188248 45.591805 -1.9291735 16
64.180473 45.464951 -1.8480791 223.5
32.247143 45.628933 -1.999988 90
32.505058 45.608906 -1.8503904 170
64.496353 45.707272 -1.859748 241
64.617767 45.778427 -1.8606188 253.5
29.108459 45.979996 -1.9087549 86
29.224976 45.939106 -1.9651567 98
64.759491 45.874443 -1.8892189 270
64.912735 45.978737 -1.8522751 220
65.106277 46.128975 -1.8414562 205.5
29.267298 46.257973 -1.9663947 87
65.250694 46.215076 -1.853569 331
65.438126 46.372356 -1.8551806 273
29.862562 46.446205 -1.8989887 81.5
65.593819 46.471161 -1.8539467 363
65.833145 46.428497 -1.8030927 567
65.782127 46.604393 -1.8500583 193
65.940765 46.731106 -1.857229 442
66.00293 46.781799 -1.8677177 258
66.297592 46.976776 -1.8567393 279
30.289555 47.019596 -1.9496427 74.5
30.971495 47.131729 -1.9390416 53
66.45787 47.084641 -1.846643 231.25
30.402521 47.293076 -1.8381655 61
31.063837 47.233978 -1.9223644 92
32.011993 47.314541 -1.9756353 128
35.103786 47.391411 -1.9514135 134
35.365749 47.378296 -1.9360406 44
66.749718 47.295303 -1.8343705 241
66.850906 47.354942 -1.8456777 451
31.57766 47.529465 -1.9025865 70.5
34.957142 47.410507 -1.9910876 68
35.096027 47.457874 -1.8839197 99.333336
35.240265 47.459862 -1.8667822 84
35.759224 47.568581 -1.8196177 73
67.070396 47.504089 -1.8248186 213.66667
31.579105 47.708988 -1.9071884 55
67.304024 47.690117 -1.8420264 295.5
36.182018 47.92271 -1.9839042 258
36.239079 47.942032 -1.9081898 203
67.725449 47.979137 -1.8345082 443
67.756287 48.021999 -1.8348904 224
67.917328 48.098175 -1.8153241 249.5
31.970039 48.30703 -1.923877 55
32.035217 48.321533 -1.9438965 51
36.452282 48.318146 -1.8426703 202
36.75843 48.326569 -1.9948864 133
36.888733 48.317425 -1.936799 89
37.04567 48.340057 -1.9096323 258
68.175385 48.288685 -1.8238175 257
68.201813 48.295155 -1.8172174 130
32.432976 48.413704 -1.8417563 85
36.798042 48.570843 -1.8167549 279
36.959557 48.427315 -1.8980312 210.5
37.072838 48.512383 -1.9056191 95.5
37.453465 48.573166 -1.8051381 268
68.572937 48.570946 -1.8153374 396
32.934746 48.699173 -1.9327402 63
37.445477 48.714783 -1.8373064 173
68.641541 48.629604 -1.8173862 344
68.831726 48.767365 -1.8073864 269
33.338966 48.969009 -1.8814421 64
37.001766 48.84845 -1.9531399 196
37.243019 48.888588 -1.8335322 216
37.676697 48.950378 -1.950439 140.16667
68.958206 48.84623 -1.8002954 189.5
69.127945 48.969315 -1.8092568 360
37.90358 49.134811 -1.8129853 206
63.472748 49.162212 -1.9852535 20
38.150711 49.292145 -1.8168445 86
38.165298 49.475685 -1.9479414 167
69.944679 49.582256 -1.8341119 280
38.307262 49.661297 -1.8847643 140.66667
38.293022 49.860264 -1.9103765 143
38.419552 49.824951 -1.8770852 139
64.876907 49.878059 -1.9881775 16
67.47818 50.145214 -1.9966974 43
70.557182 50.035309 -1.9813831 208
70.638763 50.097717 -1.9861531 253
70.81498 50.242519 -1.996483 289
62.48777 50.439362 -1.9759687 17
64.18454 50.545906 -1.9704759 34
68.699005 50.524307 -1.9581985 20
71.379517 50.643276 -1.9923742 300
71.483185 50.734299 -1.9744941 231.66667
71.617264 50.788246 -1.9768841 254
64.278671 50.87664 -1.9890739 35
66.761452 50.952526 -1.9843527 58
71.865456 50.964466 -1.9725308 368
70.063187 51.099163 -1.9801781 72
65.730133 51.242783 -1.9512379 31
66.876389 51.231449 -1.9889134 40
67.481598 51.262936 -1.9993048 105
72.375221 51.350269 -1.9757164 249
67.527237 51.505142 -1.9844645 74
69.261864 51.464584 -1.9648836 66
72.473961 51.411522 -1.9760783 259
66.14637 51.782722 -1.9691144 84
69.577087 51.636036 -1.9906061 54
67.707764 51.946163 -1.9464307 22
67.959274 51.876915 -1.9864298 50
68.166489 51.885345 -1.9846718 83.5
68.302711 51.871941 -1.9871795 109.5
70.18927 51.989273 -1.9591978 180
71.281845 51.932568 -1.9939731 102
73.192993 51.946629 -1.9666054 200
73.262909 51.964626 -1.9874609 289.5
54.692345 52.176178 -1.8702334 465
65.972992 52.040104 -1.9948467 61
71.043129 52.147984 -1.9579105 75
72.013245 52.029228 -1.962256 147
55.166588 52.255917 -1.8122082 154
55.588802 52.366615 -1.8328582 163
63.342075 52.245808 -1.9983367 36
65.004845 52.277397 -1.9451876 23
68.327461 52.310139 -1.9552937 39
68.704697 52.315231 -1.9648572 74
72.154984 52.215462 -1.9575704 125
73.670975 52.249123 -1.9829116 449.5
61.413422 52.576313 -1.9974147 51
67.486824 52.489578 -1.966727 100
67.817093 52.445084 -1.9808414 65
68.809143 52.509846 -1.9803703 38
69.19474 52.556381 -1.9823264 95.5
69.274002 52.563026 -1.9606878 92
74.084976 52.550842 -1.961166 226
38.387794 52.753571 -1.857162 118
38.558205 52.792332 -1.9065022 48
64.88958 52.74456 -1.9912751 80
66.837517 52.657322 -1.9223144 14
69.282883 52.677471 -1.9826819 85
71.569878 52.605572 -1.9835117 40
43.297169 52.983814 -1.8019862 139
64.879654 52.965794 -1.9795904 67
65.18927 52.956936 -1.9699115 29
69.432213 52.95393 -1.9636642 49
71.493965 52.978294 -1.9451336 97
72.089493 52.94194 -1.9700624 24
74.540146 52.86285 -1.944927 342
42.91917 53.07674 -1.8292408 76.333336
43.097252 53.106594 -1.9021798 95.14286
67.621338 53.035423 -1.9477715 50
68.323921 53.060574 -1.9769959 47
69.118507 53.006199 -1.9103615 29
70.128532 53.17556 -1.9483744 107
71.467812 53.128826 -1.9814121 47
74.912422 53.195293 -1.9524372 213
43.06575 53.29105 -1.9593961 87.5
56.478573 53.284218 -1.9477086 263
64.636467 53.23175 -1.9575648 29
70.060684 53.292557 -1.9583938 79
75.065811 53.299274 -1.9484243 173
75.22155 53.390385 -1.965677 240
38.214882 53.419525 -1.8291301 56
43.454124 53.570229 -1.8540751 169
68.530655 53.467186 -1.9783561 85
68.763832 53.439983 -1.986478 96
70.301353 53.41901 -1.9603158 90
72.607056 53.571796 -1.9382075 75
72.890808 53.541374 -1.9555087 23
38.270775 53.79987 -1.8215412 81
43.554825 53.634651 -1.8558356 157
44.155701 53.670574 -1.8738428 196.66667
44.287766 53.720734 -1.8403211 175.5
56.928043 53.751411 -1.9121683 422
69.574577 53.788212 -1.9401249 95
70.505104 53.682732 -1.9510612 47
70.731049 53.794746 -1.9501499 52
75.573059 53.601414 -1.9575586 420
75.733597 53.756393 -1.9471703 201
38.014629 53.822784 -1.806844 107
43.863228 53.820415 -1.9844495 199
44.503834 53.853996 -1.9046531 103
57.774101 53.995842 -1.9645939 161
65.944702 53.988777 -1.9741396 60
67.468063 53.977928 -1.9734961 66
68.342087 53.994915 -1.9896188 83
70.706863 53.994865 -1.9298183 37
70.999161 53.841091 -1.9598768 98
71.049294 53.882172 -1.946992 101
72.594421 53.924767 -1.9612582 46
75.936302 53.934509 -1.9522772 267
76.041916 53.971703 -1.9605502 335
44.545727 54.151711 -1.8241392 258
44.949673 54.12093 -1.8815281 208.5
68.46106 54.075172 -1.9932903 73
70.036095 54.063335 -1.9346468 41
73.979889 54.090164 -1.9449089 41
45.105194 54.231133 -1.8902382 93
45.490074 54.378822 -1.8294764 272.5
45.623905 54.378067 -1.8337042 171
56.355846 54.371582 -1.804781 342
67.992279 54.309059 -1.898504 20
70.990555 54.389801 -1.8958491 31
71.383972 54.21106 -1.9614789 96
73.198669 54.267517 -1.9565814 80
74.135262 54.32032 -1.9015255 14
76.498962 54.271061 -1.9398793 372.5
45.552906 54.48848 -1.8880522 111.5
64.127289 54.427494 -1.9877156 37
65.74305 54.57851 -1.9707274 61
71.978615 54.596119 -1.9368737 77
74.158333 54.530075 -1.931326 42
74.440193 54.555904 -1.938798 80
75.042366 54.525253 -1.933686 46
76.695435 54.424198 -1.9230388 175
76.910034 54.595829 -1.9439199 293
45.156204 54.619125 -1.8712739 189
45.814453 54.771225 -1.9572155 86
63.828323 54.709305 -1.9672661 17
65.995209 54.668312 -1.9462271 22
69.849442 54.750931 -1.9140263 35
71.603226 54.665543 -1.9259932 32
71.872925 54.630753 -1.9340714 61
77.162849 54.771885 -1.9264821 249
45.711899 54.803848 -1.8281435 220
46.006744 54.944893 -1.8292841 25
58.720352 54.912773 -1.9254342 152
70.540985 54.944519 -1.9282495 70
72.302086 54.878975 -1.933446 73
72.540527 54.948147 -1.9228203 103
77.424667 54.941002 -1.9220496 309
45.890976 55.194088 -1.8513043 169
57.450207 55.11805 -1.8120117 59
59.445091 55.182648 -1.9905015 56
65.010574 55.158867 -1.9957108 50
65.328323 55.05526 -1.980161 65
66.422089 55.052383 -1.9844663 33
67.448761 55.085884 -1.8998471 28
68.634399 55.111244 -1.9608121 47
71.715111 55.021698 -1.9409102 92
72.339874 55.196732 -1.9241866 24
74.454559 55.148651 -1.9125513 37
77.642731 55.07515 -1.9412892 379
45.715736 55.220966 -1.8541151 113
59.235695 55.222038 -1.882978 245
65.360077 55.398029 -1.9399425 26
68.332207 55.204304 -1.9423203 74
69.62648 55.280823 -1.9506978 66
72.740845 55.32222 -1.9473187 58
73.216209 55.397221 -1.9129046 182
76.260559 55.235348 -1.9225031 48
77.917 55.343323 -1.9131072 217
78.041672 55.395367 -1.9342645 498
42.209118 55.592407 -1.8081697 48
46.236122 55.453094 -1.9597592 138
69.535957 55.58532 -1.9174176 73
71.647667 55.472965 -1.9084746 63
72.679871 55.401569 -1.9095302 48
72.928009 55.477013 -1.9061514 43.5
73.221992 55.54319 -1.928726 85
73.459282 55.575241 -1.9014144 105
75.865417 55.57045 -1.9194547 51
77.698128 55.417797 -1.9179294 161
78.047813 55.413921 -1.919426 245
46.363831 55.660957 -1.9146247 132.5
46.46286 55.744461 -1.8351175 181.75
66.054245 55.714413 -1.9996372 50
68.818176 55.616425 -1.9372889 59
69.959595 55.60043 -1.8901185 21
71.587906 55.715874 -1.9025691 164
72.617889 55.612152 -1.8748138 27
73.472176 55.666935 -1.8984222 92
73.791496 55.780159 -1.9103721 97
75.890648 55.723034 -1.884306 63
76.526596 55.631359 -1.8663763 20
76.75267 55.741016 -1.9158709 31
78.396507 55.664955 -1.9075805 296
46.552948 55.922058 -1.8905699 50
69.026237 55.862587 -1.9226298 29
72.086349 55.860737 -1.8922992 34
76.734467 55.975143 -1.9130096 50
78.698944 55.863922 -1.8835914 204
78.888504 55.975769 -1.9101956 422
60.45348 56.154373 -1.8943315 194
66.481834 56.161461 -1.9877955 13
66.8993 56.169327 -1.9921825 49
67.058495 56.186268 -1.9759449 19
71.726761 56.116905 -1.8523129 23
73.92588 56.121029 -1.9080591 64
75.897362 56.157738 -1.9315294 38
76.09668 56.100914 -1.8922912 97
77.176628 56.14222 -1.8936027 39
65.21418 56.219978 -1.9853694 39
65.400131 56.351261 -1.9959849 79
66.233742 56.202042 -1.9963639 38
69.924408 56.203995 -1.9034638 39
71.055237 56.238907 -1.8963518 34
72.291641 56.397259 -1.8877203 112
74.486328 56.315338 -1.9036654 116
79.290581 56.278877 -1.905129 372.5
66.756424 56.409264 -1.9162328 36
67.64595 56.564121 -1.9945947 59
68.414627 56.449097 -1.9392924 63
74.69577 56.599594 -1.8959703 80
79.479912 56.474331 -1.8973241 262
79.713295 56.591114 -1.8964067 361
68.387398 56.650337 -1.9289401 28
70.337456 56.655281 -1.9361182 91
74.774513 56.741943 -1.8809843 43
76.779366 56.794231 -1.8883482 33
77.322311 56.614658 -1.8619004 28
78.077797 56.785175 -1.8529283 17
78.27285 56.671555 -1.8412358 30
49.1348 56.975407 -1.9646246 209
49.267872 56.974327 -1.9920996 109
61.636711 56.906956 -1.8504401 131
72.776993 56.822693 -1.8872101 168
75.232765 56.937977 -1.8894782 99
77.936584 56.956242 -1.8743304 46
80.165878 56.928303 -1.8889235 287
80.231041 56.946426 -1.8737636 234
49.153797 57.063904 -1.9787391 219.33333
49.231236 57.011253 -1.9650087 121
62.0774 57.055702 -1.9763387 41
64.859505 57.043419 -1.9756352 28
66.994308 57.180737 -1.9994363 79
69.893036 57.060677 -1.9448632 86
75.060928 57.024704 -1.9050492 35
78.339272 57.083237 -1.8737209 73
49.104591 57.264671 -1.8849822 152.5
59.600845 57.309685 -1.8013748 92
67.608047 57.309673 -1.9928957 101
73.01812 57.362411 -1.911021 81
74.315796 57.20153 -1.8675892 65
75.084404 57.360291 -1.8564551 18
75.582123 57.318886 -1.8762823 41
75.763908 57.208702 -1.8902103 109
77.687538 57.330761 -1.8710186 108
80.685959 57.281342 -1.8913207 404.5
66.283188 57.568924 -1.9392035 29
67.771111 57.557568 -1.9822097 66
68.712334 57.501045 -1.9627301 58
71.104744 57.466301 -1.875854 23
75.478607 57.432636 -1.8948721 43
80.910049 57.513809 -1.8690376 217.5
81.048706 57.538208 -1.8671583 262
63.04068 57.727047 -1.9852809 18
67.677109 57.775494 -1.9535794 36
67.897316 57.688805 -1.978637 103
68.360817 57.602989 -1.893845 26
68.861427 57.637711 -1.9225918 94
71.361694 57.629082 -1.8893627 55
76.213623 57.642555 -1.8722051 92
76.431305 57.72295 -1.8678042 133
78.757469 57.703514 -1.8520079 73
81.186447 57.659813 -1.8820417 282
45.582443 57.921772 -1.9147035 79
69.372032 57.831806 -1.9673313 60
75.693832 57.814732 -1.8271811 25
76.131516 57.808418 -1.8829716 61
76.33313 57.820061 -1.8698217 67
79.114746 57.992844 -1.8601213 24
81.561165 57.901031 -1.8545908 347.33334
68.556839 58.072769 -1.9301678 14
68.784637 58.091164 -1.9703252 33
69.668144 58.074543 -1.9382616 18
70.365997 58.086979 -1.8985562 36
73.990936 58.107979 -1.8330586 24
78.785416 58.061199 -1.871702 41
81.096436 58.144855 -1.8744688 111
81.792572 58.087006 -1.8354533 215
81.929214 58.172958 -1.8501774 286
68.712715 58.352139 -1.971845 128
75.580315 58.34613 -1.8671479 51
76.40152 58.324337 -1.823877 25
79.445053 58.335842 -1.8481442 111
80.624634 58.394478 -1.8433305 36
82.082855 58.273777 -1.8411984 259
46.762329 58.45845 -1.9869245 67
51.298569 58.591511 -1.9490253 138
64.083046 58.453041 -1.8187039 15
70.367081 58.432785 -1.9463336 62.5
76.628632 58.439117 -1.8230259 18
76.906433 58.487358 -1.8697155 32
77.003136 58.437866 -1.8662531 40
77.456512 58.589764 -1.8685431 69
79.191414 58.420216 -1.8646171 43
82.461952 58.54924 -1.8454548 383
51.09441 58.745167 -1.9488912 161
51.306343 58.64082 -1.940295 176
51.448406 58.737743 -1.8842757 302
68.76458 58.64101 -1.9773841 32
69.753983 58.722042 -1.9454919 34
70.565666 58.752197 -1.9264696 50
70.64621 58.610596 -1.8973192 41
74.117058 58.631046 -1.9175382 121
76.925247 58.624645 -1.8318758 20
80.376656 58.705307 -1.8650881 90
82.554184 58.661732 -1.8334126 214
82.751541 58.779873 -1.8251784 212
50.949963 58.839798 -1.9502819 33
51.791718 58.957741 -1.9575202 238
69.525879 58.856773 -1.9533663 57.5
69.868698 58.9478 -1.8818076 27
70.315506 58.803802 -1.9138184 145
70.426857 58.853184 -1.9224232 133
74.67041 58.811222 -1.8173938 23
77.696693 58.927662 -1.8526906 33
80.911423 58.849743 -1.826683 18
81.324776 58.921791 -1.8130736 99
82.932953 58.91394 -1.8410747 261.5
51.723713 59.075424 -1.8263026 306
52.221252 59.092674 -1.8072931 144
68.196007 59.074074 -1.9703044 63
69.65815 59.117226 -1.9535431 41
70.123665 59.199535 -1.9158468 80
71.328758 59.031197 -1.9094929 26
74.345024 59.088829 -1.8941367 37
77.989365 59.054878 -1.8491991 45
78.310608 59.166401 -1.8439003 82
79.606728 59.041409 -1.8295168 88
80.873749 59.010445 -1.8266482 36
81.741417 59.013748 -1.8373402 35
83.257347 59.133041 -1.8365797 460
51.94537 59.31205 -1.9503005 163
52.401802 59.342937 -1.9789537 258
67.946236 59.342941 -1.9461089 18
69.685669 59.213184 -1.962146 49
69.954468 59.327858 -1.9423039 41
70.429008 59.397591 -1.9400842 152
70.841476 59.357506 -1.8998286 40
71.500374 59.383369 -1.9109631 39
72.981865 59.318783 -1.833842 25
73.275688 59.336918 -1.8965836 92
76.059967 59.286537 -1.8486574 35
78.304329 59.36401 -1.8367403 45
78.747879 59.364571 -1.8390844 118
83.465836 59.294781 -1.8063293 204
83.613831 59.397888 -1.8118784 343
52.610645 59.464123 -1.9131913 216
68.02858 59.491852 -1.9867857 26
70.509407 59.597111 -1.9486567 154
77.150421 59.458755 -1.8370497 56
78.150108 59.405937 -1.8474849 30
81.00399 59.458599 -1.8559299 91
83.655762 59.41954 -1.8114227 277
48.38821 59.669933 -1.8809898 49
48.607925 59.794197 -1.8586676 52
52.529202 59.761318 -1.9643104 182
53.044422 59.777348 -1.9464567 179
70.029808 59.772678 -1.9253367 46
72.264145 59.65844 -1.8822985 21
74.22863 59.686165 -1.8312553 28
75.36705 59.716576 -1.8258955 28
79.145393 59.776169 -1.8309869 87
81.288277 59.689842 -1.8293064 21
84.11142 59.747009 -1.8090193 405.5
52.85022 59.949875 -1.8878499 134
65.537155 59.835579 -1.9971633 53
70.65625 59.840214 -1.9411588 30
71.792908 59.978207 -1.8812662 24
72.569412 59.957932 -1.8623683 18
79.056015 59.824909 -1.8324888 52
53.315384 60.15913 -1.8352631 266.5
53.789902 60.139328 -1.9074425 181
53.854031 60.131958 -1.8811225 199.66667
54.010452 60.128143 -1.810366 121
67.378738 60.184391 -1.9968331 73
68.580338 60.166092 -1.9751172 28
71.377258 60.104668 -1.9174368 88
71.9245 60.106327 -1.8800662 54
73.182243 60.003872 -1.8552188 56
75.352875 60.197521 -1.8066127 30
77.647827 60.06168 -1.8208895 53
78.383057 60.18774 -1.862627 60
78.76561 60.118572 -1.8161336 74
79.582794 60.135677 -1.8296793 68
82.193611 60.033134 -1.8320233 42
53.917458 60.300732 -1.9418719 160
71.504791 60.364017 -1.9218668 24
72.291153 60.397205 -1.8942268 41
73.099747 60.32077 -1.8882211 62
73.291527 60.331909 -1.8518143 30.5
74.549606 60.289917 -1.8495331 55
75.409851 60.254852 -1.8505831 36
81.87648 60.201664 -1.8362315 76
49.139282 60.444374 -1.8197191 77
53.523296 60.435387 -1.9873006 78
67.201569 60.560131 -1.9657472 20
70.611061 60.516907 -1.9429235 63
71.561356 60.458164 -1.9329131 36
72.318146 60.452103 -1.8499614 23
75.104713 60.561119 -1.8234987 36
78.937698 60.475445 -1.8062042 22
80.102531 60.515312 -1.8247387 71.5
83.009583 60.427254 -1.8134942 92
54.021225 60.709167 -1.9046516 220
69.260025 60.771042 -1.9919715 68
72.240509 60.64312 -1.9122032 146
76.465965 60.723175 -1.8193209 63
79.608452 60.608673 -1.8087865 22
80.338791 60.614914 -1.8097882 116
80.426682 60.752983 -1.8189075 65
54.03265 60.806602 -1.9304345 169
54.407444 60.82357 -1.93537 278
55.0536 60.994976 -1.8168488 70
68.017136 60.988335 -1.9963051 42
69.034668 60.895172 -1.996932 165
69.386139 60.886295 -1.9430603 16
72.451767 60.925495 -1.9004179 74
80.22493 60.922062 -1.8048383 29
54.520721 61.060272 -1.8232889 288
55.123676 61.106983 -1.8544557 190.2
72.400826 61.000603 -1.875497 73
73.760948 61.065323 -1.8886455 49
74.471252 61.044456 -1.848812 95
74.651077 61.16275 -1.8079119 30
75.099129 61.043827 -1.8676188 34
81.106812 61.113617 -1.807097 112
55.220589 61.288616 -1.9701394 152
69.474426 61.370956 -1.9863893 61
73.19413 61.337902 -1.8914499 85
76.978035 61.373699 -1.8532352 23
55.068523 61.472336 -1.8954728 197
73.217644 61.403366 -1.862139 58
75.619049 61.447292 -1.8355502 40
80.927834 61.4189 -1.8002319 31
81.170258 61.434135 -1.8100352 64
81.381882 61.523849 -1.8008002 42
70.097473 61.67672 -1.96316 87
70.853592 61.622776 -1.9605207 78
72.688538 61.768326 -1.8495725 34
73.921631 61.771324 -1.8536813 16
55.32103 61.884403 -1.932091 171
69.31089 61.908073 -1.9781553 61
73.982353 61.83886 -1.8196135 33
74.137932 61.987984 -1.8605571 26
70.770073 62.106907 -1.9689299 109
73.350601 62.185905 -1.8331915 31
74.165497 62.166325 -1.8673403 32
77.790222 62.136986 -1.8019311 41
71.648132 62.211914 -1.9707143 44
72.191444 62.253296 -1.9244964 31
75.210197 62.353195 -1.8291436 22
75.471352 62.256721 -1.8574438 79
76.328323 62.251251 -1.8255868 17
72.675293 62.465084 -1.9076056 50
75.867561 62.430519 -1.8365871 42
76.109695 62.406624 -1.8475057 39
80.342918 62.581528 -1.8027637 45
56.179031 62.705727 -1.9785396 141
70.34684 62.671844 -1.9897301 170
76.49263 62.74839 -1.8395586 68
56.80006 62.886581 -1.9764383 193
69.78479 62.924152 -1.9795132 54
75.071342 62.882538 -1.8606746 43
70.791397 63.122368 -1.9507866 63
77.423187 63.11438 -1.8214297 40
78.246315 63.040325 -1.8195617 69
71.317062 63.378639 -1.947134 380
72.602806 63.358501 -1.9383384 154
73.682434 63.24456 -1.843359 28
74.314041 63.388313 -1.8710829 46
57.578003 63.409248 -1.9082861 126
70.584091 63.420448 -1.9924605 71
71.4515 63.572594 -1.9307799 113
73.635384 63.434917 -1.9012792 32
70.986862 63.731239 -1.9327202 35
71.905151 63.649223 -1.8978972 24
73.519218 63.716057 -1.8730361 20
75.235855 63.679375 -1.857427 42
76.599045 63.766876 -1.8392334 99
78.290466 63.747047 -1.8028275 35
53.896393 63.825172 -1.8032584 55
54.086906 63.931957 -1.8408377 42
58.141991 63.822582 -1.9663025 174
58.514156 63.833267 -1.9834012 175
72.160103 63.879093 -1.9546959 185
73.413078 63.922424 -1.9282812 28
71.629654 64.13562 -1.9588068 65
73.182785 64.051125 -1.9351449 70
74.698166 64.165421 -1.8876284 92
58.685482 64.262299 -1.9312338 187
73.215683 64.259186 -1.9215318 63
58.774261 64.42971 -1.9216222 50
71.680893 64.489128 -1.9772842 70
73.016594 64.448761 -1.939846 34
74.358803 64.463326 -1.8852096 20
77.358536 64.420044 -1.809984 16
59.104225 64.647247 -1.9212749 82
72.427719 64.683563 -1.8987844 50
74.473206 64.617493 -1.8803639 44
75.022148 64.761047 -1.8973093 26
71.243935 64.969269 -1.9957542 38
72.847038 64.980484 -1.8958893 54
73.458694 64.848129 -1.9180243 52
77.31176 64.929153 -1.8021938 32
60.057224 65.160614 -1.9127831 197
60.36797 65.183472 -1.8270329 225
60.414829 65.106155 -1.8566904 125.5
71.595963 65.020859 -1.9818347 96
72.056023 65.015083 -1.9796801 67
72.564781 65.03344 -1.885105 58
73.934616 65.02655 -1.9106081 51
75.249298 65.062248 -1.8648658 25
59.943001 65.317352 -1.9565527 170
60.094475 65.242012 -1.892624 63
60.254871 65.239647 -1.86754 264
60.761219 65.215752 -1.9432389 130
71.312897 65.287369 -1.9725095 43
72.893616 65.259445 -1.8924495 107.5
76.653 65.259987 -1.8193171 27
78.399948 65.313728 -1.8060238 27
79.129028 65.365471 -1.8115299 34
72.875641 65.574142 -1.9030975 14
73.322533 65.534775 -1.8631366 38
