# .PCD v0.7 - Point Cloud Data file format
VERSION 0.7
FIELDS x y z intensity
SIZE 4 4 4 4
TYPE F F F F
COUNT 1 1 1 1
WIDTH 1365
HEIGHT 1
VIEWPOINT 0 0 0 1 0 0 0
POINTS 1365
DATA ascii
-144.2126 71.527641 1.5598279 50
-143.28108 71.483299 1.4235842 77
-142.40936 71.571442 1.4384027 132
-139.75078 71.595787 1.416634 85
-133.21852 71.594719 1.5390966 122
-163.25513 71.709412 1.5901549 215.5
-159.54962 71.796524 1.5363128 111
-156.94682 71.75383 1.4077852 239
-145.64647 71.791878 1.4799306 483
-143.23012 71.61393 1.5894055 154
-142.39067 71.662537 1.4406521 551
-141.52147 71.76403 1.4354613 402
-139.71213 71.663521 1.4418321 124
-135.8882 71.643806 1.5045345 110
-135.70384 71.760681 1.5178437 70.5
-134.60097 71.730537 1.4757311 81
-134.49857 71.732849 1.5755727 78
-133.85416 71.655235 1.5236657 313
-133.742 71.625145 1.5111277 179.75
-133.40875 71.674713 1.4215474 491
-133.30148 71.650406 1.4823515 397.5
-132.92393 71.774315 1.5003496 435.83334
-132.42474 71.693588 1.5850284 119
-132.09755 71.750801 1.4919254 518.66669
-131.9762 71.660057 1.4657917 136
-131.72357 71.739967 1.4945718 320.75
-131.26828 71.68853 1.5474361 126
-131.02007 71.72551 1.4008862 59
-130.88113 71.69175 1.462368 149.5
-130.60062 71.646446 1.4588535 90
-130.44592 71.737022 1.5127398 239.66667
-130.29861 71.736046 1.4669399 406.70001
-130.13138 71.691055 1.514094 404.70001
-125.34391 71.779892 1.4926739 119.75
-123.07491 71.78566 1.5085001 245.5
-122.95332 71.715347 1.5388619 33
-163.49286 71.937668 1.586014 160
-163.18947 71.888931 1.592898 128
-159.05992 71.997375 1.4732485 246
-158.27721 71.915092 1.4609473 329
-157.51529 71.955978 1.4485956 137
-157.31613 71.884827 1.4468921 117
-156.51785 71.870483 1.4087111 230
-145.70601 71.864372 1.4960123 160.75
-144.22575 71.82827 1.4450583 144
-143.48346 71.840134 1.4583395 184
-143.32681 71.892883 1.4154111 320.5
-142.36478 71.899979 1.574842 234.5
-141.69215 71.804398 1.4456749 582
-141.54416 71.866623 1.4615144 382
-141.33597 71.950119 1.498505 127
-139.65475 71.823936 1.5830328 399
-139.5179 71.895721 1.5188838 203.25
-139.39215 71.945427 1.503412 341
-136.43314 71.963776 1.5729251 353
-136.23282 71.998062 1.4663064 317
-136.09848 71.955322 1.5969888 164
-135.71165 71.825432 1.4850963 403
-135.50993 71.840149 1.4713823 81
-134.66116 71.802528 1.530163 220
-134.56628 71.91423 1.5555096 415
-133.71756 71.949387 1.5922465 363
-133.40619 71.95372 1.5632927 321
-133.2728 71.839249 1.544361 260
-132.98157 71.816338 1.540877 579
-132.24033 71.832016 1.5112634 297.5
-132.18689 71.900955 1.4316828 341
-131.72202 71.938553 1.5805628 397.5
-130.37358 71.932648 1.5753062 147.5
-128.9594 71.991783 1.5820197 147
-128.64885 71.979446 1.5061623 340.5
-128.58812 71.970093 1.5508265 114.5
-125.68645 71.902107 1.4832394 190.2
-125.48721 71.904358 1.520264 199.25
-123.15804 71.836777 1.5021794 168.60001
-163.46863 72.032059 1.5852171 212
-161.90314 72.180618 1.5458181 241
-159.81691 72.124817 1.5598582 153
-159.75314 72.154778 1.592657 624
-159.54959 72.088615 1.504935 160
-157.22064 72.181236 1.4243323 63
-150.62054 72.1381 1.5147811 508
-149.5567 72.160622 1.4434761 205.75
-148.68704 72.152611 1.4699566 204.60001
-147.87064 72.161728 1.5300653 208.7
-147.74959 72.128822 1.4450073 175
-146.94954 72.13942 1.5061857 221.42857
-145.22388 72.080978 1.5586915 62
-145.1181 72.129349 1.4974281 267.25
-142.46638 72.147636 1.5475553 65
-142.31866 72.05304 1.4597952 462
-141.30534 72.192696 1.4517411 419
-140.66071 72.151878 1.4872824 407.83334
-140.53444 72.117889 1.5142289 296.33334
-136.46863 72.054451 1.4722805 637
-136.15791 72.045166 1.5083561 622.25
-135.62566 72.01606 1.5909126 460
-135.4996 72.022324 1.5683179 240
-134.84264 72.054649 1.5477828 298
-134.74355 72.048065 1.5406363 74
-132.09747 72.063522 1.5873874 316
-130.32961 72.085281 1.5004778 370
-128.87505 72.035957 1.4874967 381.66666
-128.67574 72.013397 1.4646279 422.66666
-161.22708 72.286018 1.5436963 324
-160.06598 72.289368 1.4858407 671
-158.54781 72.252571 1.4651839 44
-157.05721 72.338539 1.4629626 65
-156.92902 72.201904 1.4074748 74
-150.22968 72.367134 1.4315783 203
-150.14488 72.306412 1.554571 366
-149.66707 72.224556 1.4275419 239
-149.53087 72.230019 1.4931288 333.625
-148.7153 72.265121 1.4679029 274.5
-147.85741 72.226402 1.4775953 254
-146.92229 72.223053 1.5424682 165
-146.76872 72.203377 1.415808 109
-145.10541 72.212807 1.4585487 393
-144.01012 72.311485 1.4003081 250
-139.51213 72.21357 1.56408 151
-137.1147 72.377731 1.4641222 447
-130.37573 72.27626 1.4616685 250.5
-163.16257 72.511032 1.5968095 97
-161.58078 72.517365 1.5720322 281
-159.85109 72.57943 1.5109539 225
-157.37547 72.432404 1.4186772 71
-156.03 72.513199 1.4543366 59
-155.54375 72.533173 1.4303319 41
-151.57549 72.492485 1.5902891 215
-151.37993 72.497711 1.5934798 288
-151.07834 72.545815 1.5893955 596
-142.77458 72.406403 1.4976974 582
-142.03526 72.463837 1.522464 324.5
-141.13834 72.472969 1.5516587 477
-139.01913 72.439125 1.5565448 109
-138.84496 72.434013 1.5552269 145
-137.20589 72.429771 1.4914119 642
-135.26222 72.406082 1.4884939 352
-135.14841 72.472427 1.4742576 164
-130.35284 72.510635 1.5176976 148.5
-162.94771 72.758255 1.5772722 123
-161.56746 72.635094 1.5707707 233
-159.20938 72.648361 1.5229686 332
-159.19002 72.609657 1.524837 476
-157.30521 72.767776 1.4676478 281
-157.16106 72.708679 1.494365 204.5
-156.63307 72.714058 1.412668 117
-151.63879 72.644058 1.4423845 390.5
-151.55193 72.630646 1.512866 330
-140.91145 72.790619 1.5606043 58
-136.92177 72.6856 1.5232478 227.33333
-162.36887 72.814529 1.5862099 113
-159.64207 72.910309 1.5527973 87
-157.86824 72.886574 1.500249 107
-157.47807 72.895142 1.4754177 203
-157.23726 72.858246 1.4401798 117
-156.36534 72.864296 1.4527338 433
-142.60759 72.914154 1.4983673 113
-160.07477 73.058136 1.5280385 124
-159.7765 73.16597 1.5889474 75
-82.99884 73.121765 1.4828179 39
-158.75969 73.435654 1.5143088 96
-158.2829 73.505264 1.5589635 40
-156.73219 73.546082 1.4561447 96
-155.59653 73.493248 1.4209083 122
-159.81494 73.607399 1.5560685 124
-158.45039 73.728798 1.5295056 43
-159.91328 73.950523 1.5629927 57
-156.6864 73.96225 1.4638469 173
-155.55402 73.863075 1.4404409 139
-154.4274 73.81176 1.4120601 146
-162.0127 74.014656 1.5921515 79
-158.62779 74.041107 1.5552568 183
-160.65901 74.320244 1.5917048 105
-159.87796 74.323669 1.5921677 263
-159.43831 74.266624 1.5721972 114
-159.27658 74.330513 1.578161 112.5
-159.03603 74.330566 1.5760943 117
-158.83374 74.282509 1.5651293 107
-158.73929 74.265457 1.5669283 137
-158.5137 74.290298 1.5497345 89
-156.6942 74.382111 1.4788804 312
-155.51627 74.325356 1.4430181 43
-154.38454 74.308701 1.406032 62
-160.76263 74.517036 1.5764554 77
-156.61359 74.798721 1.5161809 134
-154.33813 74.752205 1.4382697 163
-153.19905 74.743004 1.4075091 144
-155.46783 74.80381 1.4668643 109
-158.86551 75.051178 1.5869108 54
-158.28198 75.021004 1.5884624 82
-155.95346 75.073608 1.5328188 106
-154.29616 75.190102 1.477613 59
-153.15656 75.169205 1.4508008 80
-152.01157 75.196106 1.4158019 72
-84.015121 75.001549 1.5898888 65
-160.67789 75.241844 1.5924364 125
-159.94609 75.324486 1.5907443 60
-157.86301 75.328308 1.5805912 66
-156.98138 75.346474 1.5481362 108
-156.57343 75.248329 1.5525544 64
-155.41916 75.32373 1.4895235 76
-156.99434 75.432106 1.5446216 94
-155.27937 75.491913 1.5510374 103
-154.18414 75.444008 1.5140377 289
-150.23788 75.443169 1.411054 287
-155.38612 75.700317 1.5688986 190
-154.24617 75.718903 1.5270607 180
-152.94205 75.666168 1.4906178 118
-151.96127 75.737778 1.5259534 122.5
-147.20616 75.713165 1.4462708 42
-158.16127 75.821899 1.5793698 104
-153.08453 75.885727 1.467225 116
-150.80138 75.903885 1.5253903 48
-147.83549 75.907806 1.4953644 55
-146.45312 75.932159 1.4436754 41
-132.29277 75.947319 1.4996908 110.5
-131.74414 75.885963 1.5683999 292
-130.77785 75.906357 1.5129343 138
-158.67197 76.048996 1.5861427 57
-154.06427 76.19268 1.480332 354
-150.35727 76.143448 1.563803 107
-148.21268 76.062805 1.4276 36
-146.2309 76.167503 1.4634637 246
-143.11667 76.064232 1.4603565 274
-132.18381 76.071236 1.5425464 267
-131.8726 76.028442 1.4846056 152
-131.12762 76.108444 1.4518445 284
-129.41599 76.14296 1.4139806 362
-152.77113 76.325523 1.4941727 328
-148.33252 76.283264 1.497436 376
-147.82919 76.23391 1.5471753 140
-146.40555 76.328857 1.4990578 399
-146.35974 76.280357 1.4903836 425.5
-143.27122 76.247833 1.5583056 313.33334
-129.82706 76.247437 1.4620379 306
-129.28741 76.248749 1.4754426 237
-154.11758 76.44339 1.5374516 123
-153.03067 76.466652 1.5075916 35
-152.74408 76.51519 1.5000838 291
-150.38971 76.503677 1.5922348 321
-149.9604 76.463326 1.4273385 54
-149.59949 76.462555 1.4083974 21
-148.52902 76.479744 1.424811 29
-148.30478 76.578743 1.5106394 222.5
-146.34344 76.46553 1.4889556 370
-143.75066 76.519508 1.4969096 170
-135.94714 76.451347 1.5300859 382
-135.20325 76.502235 1.4842069 388
-128.86696 76.596046 1.4724969 178
-154.07298 76.668503 1.5202179 125
-153.67902 76.639259 1.5101283 75
-146.47261 76.67424 1.5530884 301
-143.34297 76.63913 1.4654404 307
-142.97852 76.648834 1.4684018 308
-136.08267 76.714157 1.5114279 301
-135.88481 76.723473 1.4760021 230
-135.09752 76.756706 1.4752659 213
-134.85991 76.643288 1.4818796 330.66666
-128.63724 76.608124 1.4324603 238
-150.15254 76.99649 1.4402208 346
-148.71341 76.971443 1.4111799 289
-148.24437 76.831413 1.5628923 370
-146.80635 76.902435 1.5515616 286
-144.05693 76.928543 1.4646529 338
-137.13652 76.84668 1.4227588 429
-136.51379 76.848373 1.5213439 242.5
-136.27197 76.803734 1.5698247 201
-133.03824 76.860443 1.5259798 291.75
-132.98314 76.845695 1.5825024 370
-128.73033 76.878593 1.4622883 295
-126.68894 76.978241 1.5995038 110
-148.18025 77.054367 1.5782459 349
-147.58891 77.191238 1.5920959 368
-147.11197 77.19381 1.5656928 332
-146.88678 77.157188 1.5401424 303
-146.5219 77.173332 1.5388913 331
-144.27615 77.10936 1.5546644 300.5
-143.71112 77.062622 1.503109 210
-143.16629 77.063423 1.5780393 187
-138.09433 77.179527 1.5634365 338
-137.93257 77.165154 1.5144333 305
-137.68317 77.085648 1.4815042 229.5
-137.00912 77.018303 1.4991834 261
-132.5827 77.107132 1.5522023 377
-127.10555 77.056664 1.49532 125
-126.67925 77.002655 1.5422535 241
-148.67207 77.227631 1.4218874 348
-148.5002 77.385277 1.4468751 322
-148.12457 77.366608 1.5761878 360
-147.3447 77.349083 1.5903167 312
-146.48599 77.314575 1.5396855 335
-144.45309 77.314362 1.4934908 326.25
-144.33122 77.283897 1.5301149 285
-143.18733 77.301056 1.5026463 224
-142.20142 77.277206 1.42155 305
-137.96158 77.229431 1.5618281 268.5
-133.90063 77.290871 1.5258592 291
-133.7509 77.241364 1.5416631 275
-126.60979 77.237526 1.4065285 51.5
-153.03156 77.426666 1.505493 228
-152.97485 77.587021 1.5136808 231
-146.41486 77.550827 1.5244845 294
-153.86877 77.693314 1.5309268 227
-150.30814 77.7882 1.4740421 232
-150.15263 77.742966 1.4623284 339
-142.53096 77.799484 1.5155255 354
-142.1259 77.666451 1.5044776 286
-141.96001 77.741745 1.5514041 237
-141.73701 77.702179 1.5737958 164
-141.0937 77.79454 1.5471065 151
-140.89743 77.781197 1.5413663 111.5
-137.81993 77.691307 1.4242784 261
-120.37669 77.786697 1.4815096 226
-154.03685 77.875839 1.5421363 332
-153.81038 77.800095 1.5260576 191
-153.48636 77.881233 1.5584856 319
-150.19473 77.990723 1.4909151 336
-142.55539 77.816299 1.5745709 297
-141.99014 77.81015 1.5910212 144
-141.10004 77.822334 1.4762623 111
-140.90021 77.823814 1.484264 120.71429
-140.42998 77.907097 1.5604007 302
-140.33066 77.969025 1.425674 357
-140.13237 77.852356 1.5351014 357
-138.2585 77.94268 1.5158232 187.66667
-120.90041 77.950752 1.5128884 204.33333
-120.7381 77.860512 1.5803897 216
-120.01563 77.817764 1.5736194 290
-119.78226 77.888527 1.5722524 106.66666
-119.47966 77.91301 1.5200149 115.5
-119.30802 77.976715 1.5156145 160.66667
-154.05945 78.190956 1.5486768 189
-150.3037 78.077148 1.5022289 338
-148.95055 78.175156 1.4339483 183
-148.71436 78.070969 1.4273156 154
-148.49422 78.122086 1.4850085 327
-142.10002 78.121078 1.5483885 302
-141.85571 78.045242 1.5563424 262
-139.92859 78.085159 1.4524751 305.5
-121.15064 78.122169 1.5925756 159
-119.72861 78.082947 1.5112503 214
-119.56214 78.087753 1.5090744 258
-119.30338 78.010201 1.5538856 57
-119.08661 78.098061 1.5216762 162
-118.88965 78.119301 1.4967781 231.66667
-118.75434 78.13472 1.4467671 281
-84.725975 78.027939 1.4561318 58
-153.94824 78.270958 1.5614097 310
-150.34976 78.381271 1.5523032 312
-148.82419 78.313171 1.4354664 156
-145.99126 78.316208 1.409384 321
-140.62347 78.261963 1.4347954 306
-121.1311 78.38916 1.4461999 237
-119.04285 78.216751 1.5993329 165
-152.71068 78.51828 1.5802962 312
-144.20432 78.427017 1.4787209 248
-139.9162 78.539162 1.5924495 264
-138.93178 78.497131 1.4185493 189
-138.73431 78.500229 1.4305025 195
-118.59886 78.586205 1.5722308 150
-152.69502 78.61248 1.571701 314
-148.98526 78.792603 1.4805702 203
-139.20261 78.629753 1.4239217 292
-139.15428 78.672882 1.4278715 267
-126.34513 78.71936 1.4031516 63
-121.72733 78.67524 1.5392317 223.66667
-118.47705 78.615364 1.4611367 119
-148.27795 78.888527 1.5729862 199.66667
-126.20227 78.846146 1.4344039 45
-118.29719 78.910324 1.5587341 60
-139.22292 79.085373 1.5501446 279
-126.40299 79.081093 1.54195 19
-122.03516 79.070358 1.4927167 203
-118.33612 79.136292 1.5330412 42
-118.11584 79.103012 1.5373498 49
-139.27173 79.215034 1.5876536 227
-126.35818 79.211113 1.4320645 30
-122.07057 79.31395 1.4911046 258.5
-118.04837 79.243744 1.5615323 225
-117.96646 79.283241 1.4898195 153.66667
-117.89426 79.423325 1.5646288 125
-117.94641 79.698807 1.4372869 165.5
-125.77923 79.950348 1.4075365 27
-122.11682 79.942886 1.5499535 232
-118.02366 79.801682 1.5638037 141
-84.962029 79.852943 1.4375271 79
-125.91615 80.082901 1.4585606 49
-118.00014 80.401375 1.5881701 143
-125.43222 81.126823 1.4161847 37
-124.93737 81.579567 1.4234045 51
-124.99569 81.867966 1.5340928 21
-123.97272 82.885948 1.5453587 75
-123.83152 83.302254 1.4341433 115
-118.48808 86.62854 1.5662253 41
-118.18697 86.771034 1.5178763 52
-117.90334 86.857986 1.5372601 47
-116.11652 100.3224 1.4909666 51
-40.305817 -74.256241 1.7440361 25
-44.388512 -72.89962 1.7620069 37
-45.321079 -72.613785 1.6738555 18
-44.544174 -72.747108 1.7995191 19
-13.937959 -13.431989 1.7194484 38
-14.285469 -13.358784 1.7362493 77.5
-82.86145 -10.289037 1.7255235 26
-15.045109 -9.4316006 1.6653206 3047
-14.628211 -9.5607147 1.6798345 242
-14.54597 -9.5542898 1.7149012 99.5
-15.013784 -9.2634706 1.6183416 3110
-14.927231 -9.2657337 1.6377159 141
-14.732606 -9.3097525 1.6563897 3267.5
11.070932 -9.2116489 1.6908513 71
-16.526342 -8.8627405 1.6015896 263
-16.32593 -8.847084 1.7755898 77
-16.03187 -8.9221773 1.7187281 225.5
-15.897635 -8.9404564 1.6626468 116.5
-15.753341 -8.8795509 1.7655647 30
-15.335464 -8.9221973 1.7649033 21
-16.621386 -8.7471256 1.6854242 20
-16.524944 -8.7824316 1.6649624 32.333332
-31.478413 -6.0622816 1.7687691 127
-31.090321 -5.9770527 1.6135167 322
-30.943527 -5.6264162 1.6478251 381
-28.754789 -5.6486883 1.7395698 352
-31.293228 -5.4837914 1.7068739 222
-31.117922 -5.4720898 1.7095799 434.75
-29.403521 -5.4758782 1.601702 177
-31.289837 -5.3488231 1.7843076 393
-31.053152 -5.3485394 1.6974791 445
-29.528648 -5.3389654 1.7475227 253
-29.300266 -5.2160945 1.7043226 442.5
-29.270216 -5.0932488 1.6934978 291
-28.631126 -5.1082006 1.6978635 240
-31.769623 -4.848979 1.7408527 341
-30.000761 -4.960495 1.6651144 480
-29.994875 -4.9033365 1.789264 404
-28.615841 -4.9803329 1.7363496 107
-35.734211 -4.5174952 1.6505034 1160
-35.596878 -4.5264597 1.7531437 75
-35.330875 -4.457943 1.726226 246.25
-35.130051 -4.5008745 1.7333809 322
-39.53474 -3.702625 1.6074032 26
-39.156933 -3.7334552 1.7802787 221
-39.365761 -3.4264867 1.6504444 35
-41.556774 -2.8121653 1.6984873 168
-41.381767 -2.6459675 1.6520215 254
-39.669807 -2.7701569 1.7251691 309
-41.302555 -2.4697974 1.7147896 361.5
-41.181572 -2.580442 1.6738057 72
-40.904865 -2.5453846 1.6826893 342
-40.416634 -2.5421729 1.6603034 302
-40.323246 -2.4443629 1.6641604 377.66666
-41.804085 -2.2492962 1.7486211 227
-41.614849 -2.2167954 1.7624588 403
-41.550461 -2.294018 1.679311 265
-41.341679 -2.3201051 1.6445372 264
-40.255802 -2.238142 1.7898568 545
-41.691666 -2.178719 1.6660917 404
-40.177746 -2.1880434 1.7856145 361
-41.567436 -1.9885883 1.6995845 132
-40.757324 -1.3083842 1.7265854 272.20001
-40.621929 -1.1889019 1.6556932 36
-48.15654 -0.81553698 1.6405005 191
-47.999371 -0.94151592 1.7411201 71
-48.124588 -0.66414022 1.7438557 122
-49.485985 -0.31274891 1.7628734 419
-48.926468 -0.29628086 1.6896621 556
-48.43856 -0.34391212 1.7181983 343.5
-49.550022 -0.12706184 1.7690778 94
-48.677132 -0.051702976 1.6686187 302
-48.848793 0.032302856 1.6322272 98
-48.772255 0.012021065 1.7858289 589
-49.072132 0.55280399 1.7683653 202
-49.04174 0.71555614 1.7587929 172
-48.950722 0.63367462 1.7021565 122
-56.239235 2.4743924 1.7713591 245
-57.033619 2.8660297 1.7422366 267
-56.824097 2.9094467 1.620898 260
-57.036198 3.1697779 1.7176908 440
-56.128983 3.1606765 1.7955788 489
-55.972088 3.1881766 1.7489865 461
-65.149673 3.3373308 1.7977993 29
-57.626804 3.330452 1.651705 327
-56.309639 3.2037106 1.743799 211
-57.758125 3.440259 1.7644806 294
-57.162601 3.5382175 1.6846486 70
2.2132993 4.1175513 1.7210698 179
2.1880147 4.3641744 1.7814674 615
3.3683064 4.2528858 1.6058562 302
3.4177046 4.3360143 1.7342565 176
3.1871738 4.638659 1.6537006 411
3.4068244 4.6150074 1.6631835 633
-61.718704 5.2669096 1.6137257 4801
-61.500607 5.3495393 1.7051086 4670.6665
0.69646174 5.2625599 1.7039 263.66666
0.86919975 5.2219353 1.6751761 82
-61.413696 5.5547295 1.6667356 2789
-61.336014 5.5162163 1.7662152 3231
-61.373859 5.6099463 1.6204078 2454
-6.6461287 5.9907951 1.6393632 39
-11.888721 6.1673908 1.7653887 30
-11.636852 6.1289649 1.7852205 46
-6.8660302 6.1146884 1.7059748 293.04999
-6.6676741 6.078763 1.6889099 240.60001
-12.252282 6.2937136 1.7133125 56.25
-12.089564 6.3218598 1.6637449 82.833336
-11.887642 6.3066907 1.7043169 110.22222
-11.769478 6.3521228 1.7674222 245
-11.517578 6.2512798 1.7256181 108.875
-11.344876 6.2770448 1.7045285 106.33334
-21.564613 6.5872107 1.7886451 298
-65.341125 7.1083527 1.6964188 299.5
-22.608936 7.365304 1.7158384 595.5
-22.631639 7.786974 1.7853527 409
-20.642809 7.7599449 1.7836936 758
-20.311977 7.7084603 1.7314738 255
-66.226341 7.9355931 1.6909058 289
-28.375713 7.8925018 1.7490703 456
-27.993553 7.8147154 1.7400815 344
-22.967789 7.8379154 1.7811667 627
-22.429985 7.9854794 1.6789031 659
-20.733347 7.956665 1.7789475 544
-20.511927 7.8453565 1.704772 273
-23.603619 8.1877403 1.6907182 729
-23.497665 8.1805964 1.6761243 434
-22.650593 8.1129227 1.7975599 794
-22.274273 8.1970539 1.6130637 697
-20.981585 8.0440636 1.6506652 339
-20.478722 8.130415 1.6262996 228
-23.679508 8.2162247 1.734944 496
-23.479876 8.21134 1.674188 446.5
-23.066765 8.2803373 1.742488 693
-20.422325 8.2226591 1.6540886 666
-31.57765 8.5789566 1.6302265 622
-29.227203 8.4549217 1.6329195 645
-28.216513 8.4050026 1.7372682 590
-20.055723 8.4021034 1.6191988 386
-19.871542 8.4397554 1.6129309 531
-31.499729 8.6985846 1.6055744 731.25
-31.268864 8.6320419 1.6211523 752
-30.870581 8.7908583 1.6682578 674
-30.603832 8.6608114 1.6467212 819
-24.263706 8.7908049 1.7136906 132
-23.26572 8.7176094 1.7160707 404.5
-22.935104 8.6916714 1.7302266 214
-31.71699 8.9148226 1.6451906 673
-30.648499 8.907856 1.6992811 650
-30.271612 8.8947029 1.746356 600
-28.748505 8.9151325 1.7086927 60
-28.288763 8.9126415 1.7413146 53
-23.336006 8.8427763 1.7465773 646
-23.015818 8.9891644 1.6758189 376
-22.855619 8.8580933 1.7683454 709
-32.059834 9.1366405 1.7087247 761.5
-31.823204 9.0611715 1.7192817 377.5
-31.792871 9.0386982 1.7293472 800
-31.079288 9.1867361 1.6941315 376
-30.744583 9.1484308 1.7255661 488
-28.658472 9.0004292 1.6282388 380
-28.338686 9.1380339 1.6203555 444
-81.287598 9.320322 1.7110804 37
-32.718246 9.3003082 1.6832244 754
-32.447369 9.2699642 1.697655 651
-32.328934 9.225358 1.6551025 481
-32.010719 9.2501602 1.6726841 757
-31.841072 9.2613735 1.7356775 575
-31.089781 9.2577553 1.6012658 439
-23.19907 9.2019072 1.7482835 331
-32.940334 9.5662117 1.7349155 613
-32.677902 9.4235411 1.7033925 524.33331
-32.290466 9.5453491 1.7589539 468
-32.139023 9.4085245 1.7278963 709
-31.934374 9.5076427 1.6442568 431
-30.758139 9.5250225 1.6777068 409
-28.818375 9.5031433 1.62449 583
-28.771181 9.5159922 1.7582052 505
-28.024027 9.556448 1.6244603 472
-32.896919 9.6345806 1.7416533 624
-27.798323 9.6537542 1.6463717 627
-20.670397 9.6887913 1.6681629 631
-33.059464 9.8391075 1.6245409 591
-32.941639 9.8841476 1.6242434 541
-32.699223 9.8886414 1.6942807 687.66669
-32.453331 9.9653082 1.7670699 549
-33.005703 10.035877 1.6544138 515
-32.848461 10.159208 1.6797353 519
-32.414867 10.097363 1.7110051 491
-32.362846 10.157193 1.6496807 349
-27.860012 10.006969 1.768577 216
-33.61134 10.308643 1.7090534 325
-33.458157 10.311912 1.7319319 554
-33.261131 10.298759 1.692695 371.5
-33.054111 10.28544 1.6614341 757.5
-32.830727 10.213517 1.6856779 784
-32.504799 10.281989 1.6620399 566
-32.39386 10.388779 1.6479768 665
-32.182243 10.28965 1.6915247 510
-31.80768 10.267571 1.6645739 654
-31.486219 10.355186 1.6444696 483
-31.077782 10.247425 1.6115749 677
-11.707527 10.315958 1.663888 167.5
-33.545868 10.4028 1.705373 591
-33.335697 10.439464 1.6548908 495
-33.16296 10.568508 1.6578755 648
-32.725403 10.485132 1.6330614 580
-32.06044 10.412109 1.7161763 243
-11.665531 10.452118 1.797219 15
-32.894646 10.62793 1.6149639 376
-26.854445 10.680811 1.7534896 485
-15.364861 10.737296 1.6243184 258.5
-15.51549 10.899675 1.7552317 364
-15.380033 10.909783 1.6897515 403
-30.660553 11.042383 1.6242585 533
-85.592316 11.355274 1.675413 90
-32.847961 11.231203 1.6728135 416
-32.73999 11.232702 1.6458378 407
-21.009525 11.340061 1.6847756 152
-16.22361 11.239216 1.6492901 368
-16.102095 11.303713 1.6193644 280
-15.870441 11.316964 1.6963977 443.66666
-15.460095 11.276384 1.7849935 123
-15.223107 11.273973 1.7128595 347
-86.438019 11.448912 1.796315 143
-86.064636 11.596315 1.6430752 140
-36.667904 11.516283 1.7190862 406
-36.59671 11.422332 1.7319854 364
-36.348244 11.441897 1.7246504 685.5
-32.529457 11.507051 1.6272049 349
-27.514425 11.565842 1.6045398 441
-21.736387 11.540084 1.614041 205
-15.391885 11.407646 1.6973422 218
-36.835655 11.758416 1.6624148 580
-21.66396 11.650829 1.6456835 93
-15.582176 11.734464 1.7231641 178
-72.63446 11.890248 1.6064589 139.5
-72.579361 11.80475 1.6149714 109
-37.435272 11.827938 1.7159606 99
-30.689934 11.993723 1.7624745 535
-30.257275 11.9358 1.7013894 252
-30.159872 11.878051 1.6734043 392.66666
-15.284513 11.852867 1.6602451 252
-72.7901 12.017082 1.6436026 161
-37.140308 12.009822 1.6821549 649
-36.417122 12.173512 1.643041 418
-36.139557 12.117393 1.693336 590.5
-35.456604 12.082462 1.6996835 546.33331
-30.411373 12.068468 1.6364176 257
-30.286535 12.056929 1.6856093 491
-30.091997 12.122334 1.7030923 400
-15.123867 12.142301 1.6954348 199
-14.811128 12.074916 1.675264 156
-73.137894 12.37229 1.7319853 77
-37.891441 12.237554 1.7319187 631
-36.022335 12.375033 1.6953604 277
-35.520245 12.394135 1.7121047 509
-35.104832 12.284166 1.6773286 481
-31.640663 12.303005 1.6490858 411
-30.801489 12.233337 1.6370288 607
-30.727009 12.235652 1.674552 579.5
-30.501629 12.286785 1.603086 628
-30.337139 12.3139 1.658496 488.5
-30.107218 12.358132 1.73779 465
-15.227948 12.398306 1.7820257 354
-75.919197 12.579185 1.6038337 385
-73.028282 12.414026 1.7223572 35
-72.851135 12.414017 1.7767298 173
-31.854862 12.488161 1.6420355 561.5
-76.155411 12.707893 1.6148946 25
-74.263275 12.697477 1.7839372 224
-74.024742 12.764238 1.6772544 295
-73.9002 12.638103 1.6474786 349
-72.91613 12.702129 1.7311399 447
-41.256142 12.779991 1.7431135 2857
-41.186085 12.764984 1.735419 1592
-30.150753 12.640569 1.7071922 543
-76.646408 12.970953 1.6093016 86
-74.26918 12.836109 1.7548541 271
-72.870003 12.814746 1.7994015 88
-72.744583 12.91586 1.781756 86.5
-41.479546 12.866573 1.7593734 3149
-41.302399 12.870062 1.7424524 2910.25
-41.118408 12.867412 1.7175957 754.33331
-31.781408 12.838209 1.699651 482
-25.853382 12.847662 1.6101854 166
-76.722923 13.05846 1.6146834 94
-75.738388 13.120516 1.6624198 39
-41.409237 13.029562 1.6789964 142
-41.20369 13.130438 1.7692302 3786
-41.153893 13.116848 1.6524283 3623
-30.365833 13.136358 1.6542124 193
-76.993095 13.386585 1.6187353 63
-76.152786 13.368986 1.6974123 85
-75.876183 13.232014 1.677163 81
-75.779106 13.234563 1.7162092 18
-41.101139 13.297444 1.6829485 3330.8333
-40.924889 13.24532 1.7253969 2506.75
-32.232349 13.361582 1.6145061 531
-32.060272 13.348059 1.6317847 598
-31.91003 13.256443 1.6192067 492.5
-77.774414 13.530116 1.6877393 36
-76.849617 13.498583 1.6642768 87.5
-76.728119 13.417631 1.6203933 52
-32.745884 13.48776 1.7673296 503
-32.263424 13.559698 1.6325587 582
-31.838562 13.58498 1.6445035 366
-82.212944 13.776548 1.7046366 333
-77.71685 13.696703 1.6389236 110
-77.523888 13.624428 1.6077123 68
-77.101372 13.689732 1.6285689 41
-76.869568 13.766653 1.7434251 40
-76.466858 13.727531 1.6812592 42.5
-76.288239 13.697458 1.7228541 25.5
-32.771614 13.748404 1.7350438 184
-82.380722 13.854668 1.663733 299
-77.403114 13.930589 1.645381 26
-76.954498 13.964445 1.6981683 46
-44.650124 13.929312 1.703148 140
-32.632706 13.871426 1.7691562 341
-32.251553 13.95868 1.7504561 363
-32.156029 13.971155 1.7707586 546
-77.418045 14.024269 1.6571829 39
-77.127167 14.143328 1.7148592 57.5
-76.996269 14.053863 1.7562529 37
-45.039986 14.181596 1.7426897 736
-44.930676 14.132399 1.6938601 528.25
-44.779202 14.09729 1.6895647 331.66666
-32.565132 14.159444 1.6777893 365
-32.392902 14.011715 1.7534024 567
-32.19912 14.068884 1.6492071 587
-78.268616 14.289806 1.6445149 48.5
-77.184769 14.382351 1.7394755 40
-45.071548 14.23205 1.7771277 113.5
-44.943279 14.328045 1.7934327 97
-30.008785 14.239315 1.6930786 288.5
-79.073944 14.448057 1.6973515 23
-78.819229 14.481155 1.6800562 32
-77.962357 14.487415 1.7728698 20
-77.275986 14.410127 1.7818606 17
-45.468575 14.580086 1.7461529 523.5
-45.116898 14.482233 1.7160852 467.5
-79.228073 14.796453 1.6251031 156
-78.036072 14.696282 1.7425857 104
-77.939545 14.70532 1.742928 69.5
-45.507835 14.697634 1.710552 616
-32.537724 14.713836 1.7873852 164
-77.962624 14.871113 1.7817941 40
-41.093086 16.116829 1.6135361 315
-40.741192 16.036175 1.6858367 432
-35.603184 16.125906 1.6168743 246
-35.888081 16.335392 1.6440945 285.5
-41.546913 16.80719 1.7063804 383
-41.729332 17.028172 1.7342784 161
-34.616257 17.08119 1.7202085 351
-35.301083 17.205227 1.7899878 166
-52.180885 17.470375 1.762048 212
-43.844234 17.54743 1.651417 153
-35.55954 17.411592 1.6006719 255
-91.337685 17.638142 1.7469075 226
-91.34314 17.972069 1.7054527 173
-81.420143 17.904215 1.6284831 81
-51.910511 18.054235 1.6582829 563.66669
-51.507923 18.198372 1.6677871 506
-51.513893 18.226582 1.6110375 685
-105.62126 18.463783 1.638056 87
-52.590279 18.403173 1.7806123 567
-46.019577 19.339212 1.748215 481
-45.916656 19.326075 1.7687492 310
-45.762512 19.226561 1.724125 291
-45.469597 19.378613 1.6141455 264
-46.268787 19.557152 1.690956 364
-45.87405 19.510513 1.6890849 357
-40.43504 19.451561 1.7154531 254
-48.615379 19.60594 1.655701 314
-46.75008 19.752083 1.7536671 354
-46.430008 19.660818 1.7325289 307
-46.202232 19.717051 1.7043269 383
-46.106987 19.633137 1.6393213 395.5
-46.840282 19.878899 1.7025201 302.5
-46.647205 19.869053 1.6776978 303
-46.34058 19.920074 1.7088219 326
-46.713264 20.010143 1.6242874 387
-46.147926 20.12632 1.6033101 289
-84.976044 20.310436 1.6706396 269.5
-46.490662 20.240498 1.614886 344
-85.047485 20.409222 1.6055622 545.5
-48.856941 20.427029 1.6756681 235
-46.86982 20.497311 1.6643543 254
-93.497482 20.814415 1.6232135 177
-93.113075 20.920408 1.7336537 132
-21.005661 20.837137 1.6050568 157
-92.151588 21.033123 1.6712601 124
-24.555901 21.137222 1.7288944 119
-24.192181 21.104721 1.7954464 244
-50.992439 21.6719 1.7106171 283
-55.90102 21.96295 1.7821624 660.5
-55.707397 21.959333 1.782822 654
-24.466837 21.892303 1.6142583 108
-56.271042 22.122238 1.7792115 475
-56.426327 22.399647 1.7836076 189
-59.689056 22.536045 1.7095346 158
-56.149513 22.462599 1.7629178 382
-59.736771 22.646072 1.7056149 598
-57.946213 22.665581 1.764282 285
-56.341599 22.622097 1.7630877 394
-52.707428 22.763681 1.7679532 59
-53.489384 22.996433 1.6380664 392
-53.327808 22.964491 1.770792 303.66666
-52.952778 22.923071 1.76368 318
-52.432693 22.975636 1.7685897 453
-56.229073 23.042124 1.7968011 102
-54.744904 23.174801 1.7178729 427
-54.493126 23.070778 1.6839515 398
-53.44743 23.129013 1.7032287 434.5
-53.268204 23.028652 1.6585571 405
-53.011921 23.000021 1.6047785 451
-52.832581 23.062449 1.6444637 448.5
-52.728447 23.043079 1.6178174 480
-52.28017 23.177732 1.7231624 189
-55.06279 23.312969 1.6711807 320
-54.897957 23.219135 1.7197857 369
-54.74308 23.227936 1.7319056 369
-53.67765 23.267057 1.7568617 349.5
-53.578232 23.228039 1.6004672 458
-53.270508 23.357538 1.6065462 397
-53.14687 23.374218 1.6510854 370
-56.601822 23.450811 1.6776091 172
-55.236835 23.535625 1.6295722 84
-55.057693 23.497143 1.717025 56
-54.84343 23.444344 1.6133585 396
-55.58836 23.771458 1.7447963 147
-55.07003 23.704878 1.7244923 92
-55.413876 23.930853 1.7217735 339
-1.1593838 23.909437 1.6118752 59
-62.413628 24.183681 1.736233 2682
-62.285946 24.188286 1.7762513 2383
-57.497513 24.190546 1.7623692 355
-62.560303 24.347807 1.7890565 4238
-62.271763 24.319706 1.7448697 3172
-57.368633 24.29067 1.7832676 386
-53.735706 24.349503 1.7171626 282
-62.236546 24.595566 1.6646339 2829
-61.968979 24.560656 1.6982757 2475.5
-56.060978 24.532429 1.7287316 187
-53.861897 24.510582 1.6897259 216
-53.749119 24.405714 1.6901329 343
-35.574219 24.561272 1.6637235 134
-62.218155 24.725342 1.7183293 5264
-61.91856 24.679968 1.7229872 2474
-61.913013 24.897512 1.7108974 3872
-56.781006 25.796909 1.7880948 405
-56.366547 25.914032 1.7778339 419
-95.420753 26.440411 1.7850503 282
-95.322327 26.576353 1.7525045 192
-36.978786 26.48056 1.7203556 70
-95.428185 26.716372 1.7556064 177.75
-95.35817 26.666351 1.7421098 263
-94.139954 26.69455 1.7434397 56
-56.74408 26.632887 1.6759942 129
-37.057766 26.606592 1.72382 31
9.6589642 26.781075 1.6844146 25.5
-95.483459 26.900003 1.7361606 288.66666
-95.364029 26.929857 1.761894 152
-66.024467 26.944878 1.6368144 547
-65.949287 26.820599 1.7888803 598
9.4642162 26.803295 1.7244309 26
-95.438446 27.147346 1.7410871 191
-65.964813 27.063416 1.7110977 180
9.2741556 27.059406 1.7149308 42
-95.642029 27.540934 1.7570251 96
-95.575645 27.492857 1.7442572 194
-63.486229 27.577991 1.7661242 513
-63.369171 27.505722 1.6903807 467
-62.961327 27.568851 1.6758964 420
-61.889805 27.56992 1.6184943 397
-58.133324 27.497936 1.6693147 107
17.461044 27.526459 1.6219926 22.5
-66.332512 27.615211 1.6176581 537
-63.751057 27.62332 1.667479 139
-63.524372 27.614864 1.7126212 437.5
-63.363869 27.672321 1.7918694 308
-63.094337 27.79406 1.709427 48
-62.070297 27.712364 1.7910801 411
-61.823891 27.611322 1.6648798 391
-97.520805 27.833675 1.6297688 126
-63.446976 27.982582 1.6339175 364
-62.260777 27.83181 1.7212957 242
-61.391064 27.951803 1.7900597 522
-61.095486 27.949436 1.6249256 364.5
-60.49754 27.961258 1.647202 518
14.783237 27.830309 1.6301156 17
16.967724 27.816231 1.7911962 18
-62.201969 28.049706 1.6446942 488
-60.211689 28.020363 1.6251857 432
-60.186764 28.138632 1.6541471 437
-63.040775 28.24601 1.705338 175
-62.224625 28.205223 1.691789 327
-100.77388 29.190159 1.7563379 114
-63.438309 29.121061 1.6512302 406.66666
-59.609249 29.043823 1.7488291 267
-64.330559 29.347668 1.7495686 43
-63.489845 29.248024 1.6759721 482
-64.753929 29.540012 1.6788075 392.5
-64.520103 29.463583 1.6822151 416.33334
-62.817322 29.521091 1.7458248 397
-64.547729 29.683964 1.7354636 386
-64.369965 29.708702 1.7024827 348
-63.973343 29.61624 1.6772181 257
-64.586601 29.814236 1.6761954 326
-64.302773 29.878466 1.7167279 363.33334
-64.187302 29.85235 1.7255538 303
-103.85938 30.061028 1.7713982 183
-65.470833 30.051571 1.6833668 161
-64.135376 30.167137 1.6510044 362
-104.48457 30.291231 1.6588457 58
-65.622604 30.259483 1.7442231 193
-65.560295 30.209604 1.7334104 423
-65.227463 30.388197 1.7110584 253
-64.986961 30.234081 1.7710645 66
-65.852219 30.585165 1.6617253 261
9.8462324 30.481037 1.6568253 74
9.1317253 30.992506 1.769989 77
-66.141747 31.549116 1.7743874 473
-65.85302 31.574099 1.6382278 374
-65.736595 31.409363 1.7033931 373
-66.002686 31.725819 1.7810137 345
-65.899025 31.716698 1.7576694 288.33334
8.8156557 31.79244 1.6545831 26
-65.782936 32.434437 1.782234 368
-65.44725 32.569073 1.6097667 446
8.1557541 32.47086 1.7720251 25
-65.937431 32.615738 1.6674718 297
-65.783234 32.680382 1.6401581 331
-65.596092 32.63084 1.6900642 363
8.1944752 32.769581 1.7280545 31
-65.689186 32.887489 1.7024359 324.5
-71.385574 33.141632 1.6261739 381.5
-72.405663 33.396793 1.6225903 393
-72.305786 33.298225 1.6814756 470
-65.273743 33.294853 1.6776938 291
-72.241013 33.590893 1.6461936 376
7.7525816 33.580303 1.6669205 37
-72.349846 33.670513 1.7494197 575
-70.34346 34.186325 1.6192927 365
-70.167412 34.196751 1.6742833 336
-70.691841 34.292892 1.7199316 184
-70.537064 34.322842 1.6921421 353.16666
-70.286469 34.301262 1.6747162 377.75
-70.42421 34.564117 1.6208104 262
-70.326797 34.485085 1.7091756 484
-70.351608 34.739784 1.6336555 108
-101.64838 35.350929 1.673319 164
-101.78086 35.493225 1.6538013 144
-71.482964 36.15976 1.6173637 491.5
-70.965919 36.18885 1.768867 561
-71.630264 36.229801 1.6074429 390
-71.558289 36.329399 1.6668427 467
-70.941788 36.220737 1.77704 578
-70.434441 36.298534 1.6744156 460
-70.279633 36.263081 1.6975724 488
-70.123337 36.328373 1.6727474 362
-71.828148 36.427544 1.751206 462
-71.756577 36.528187 1.7526631 373.33334
-70.499336 36.523167 1.6655524 419
-72.078278 36.733742 1.7885025 448
-71.900879 36.702087 1.6634839 471
-71.708939 36.712841 1.6120722 492
-70.450676 36.708748 1.6368101 439
-70.245605 36.67543 1.7618842 196
-72.091248 36.871796 1.7445284 530.16669
-71.995163 36.872284 1.6129167 609
-71.123566 36.855873 1.6277871 425
-72.281143 37.186371 1.6502271 450
-72.545876 37.286289 1.6103288 431.66666
-72.34774 37.375351 1.6286533 527
-71.814301 37.229465 1.7040261 48
-57.42382 37.299194 1.6631892 213
-72.656631 37.45557 1.6551936 328
-72.535561 37.460308 1.70547 424.5
-109.72935 37.653481 1.7972265 46
-72.238388 37.64307 1.6700118 507
-110.29265 38.196274 1.7401564 73
-109.9306 38.073544 1.7457161 179
-109.7331 38.10112 1.784903 208
-104.52125 38.151566 1.7276785 324
-110.69208 38.216782 1.7502036 58
-77.242348 38.458107 1.7341874 138
-77.629356 38.893295 1.6065789 225
-151.90192 39.334858 1.7971047 70
-61.439789 39.885132 1.6324939 209
-107.64505 40.340355 1.7085643 245.5
-107.86504 40.610733 1.6511495 212
-107.79883 40.672436 1.6037734 247
-108.9106 41.513481 1.7392015 75
-110.28812 42.585285 1.7105687 241
-76.96125 42.583496 1.6288637 332
-111.07344 42.701012 1.7533109 81.5
-110.65334 42.783699 1.6059006 316
-110.48803 42.72464 1.6557568 438
-110.32198 42.649899 1.7707813 272
-80.373428 42.744221 1.7940637 224
-77.124153 42.698837 1.7119795 412.39999
-76.944641 42.616772 1.7012229 274
-76.443382 42.77755 1.7376642 138
-76.173958 42.719723 1.7143402 242.16667
-110.88718 42.824223 1.7281754 212.5
-110.63766 42.801964 1.7591741 299
-110.55296 42.836838 1.654341 117
-80.455551 42.968365 1.7359674 644.5
-80.363586 42.895466 1.6488099 656.5
-77.478706 42.989906 1.7602608 393
-77.326584 42.900745 1.7115225 362
-77.135605 42.89315 1.734798 351.75
-76.308762 42.871063 1.6782331 210.66667
-80.495506 43.015961 1.7147564 663.16669
-77.443985 43.09848 1.7201744 418
-77.318779 43.120762 1.698771 122
-76.34671 43.04509 1.6492503 275
-77.36834 43.253113 1.7542043 371
-76.976242 43.254353 1.7135916 301
-77.458092 43.458744 1.727496 290
-76.889877 43.627949 1.6287792 521
-75.501465 43.788769 1.7172656 290
-75.438179 43.899364 1.6850512 144
-77.151718 44.082535 1.6114258 442
-77.133202 44.356037 1.6079279 359
-77.316727 44.693344 1.6999431 409
-76.958664 44.791424 1.76055 352
-77.027138 45.116272 1.6266522 408
-82.104851 45.392731 1.6308333 446
-122.35821 46.021965 1.6082177 42
-123.13677 46.377983 1.6088407 48
-123.34396 46.59132 1.6730876 232
-124.07742 46.819286 1.6800851 103
-125.22137 47.324776 1.6586375 182
-124.94666 47.226799 1.6729946 69
-126.3362 47.584206 1.6708795 39
-125.42487 47.487675 1.6762029 46
-125.39577 47.415466 1.6904212 77
-126.37913 47.699097 1.6168168 39
-126.31203 47.893024 1.6880815 51
-127.31672 48.173729 1.7492124 94
-127.74947 48.266964 1.7153063 68
-130.8181 48.894779 1.6420996 153
-128.98235 48.960247 1.7798488 122
-128.73927 48.878681 1.7698475 56.333332
-128.54408 48.805885 1.7947011 52
-130.84131 49.339962 1.6506273 296.5
-130.05003 49.27594 1.7926254 65
-80.812187 49.392189 1.7553627 41
-131.40443 49.464924 1.7995908 141
-130.60518 49.464439 1.7949858 45
-132.50757 49.76899 1.7351811 193.5
-124.65203 49.7509 1.728343 58.333332
-124.52057 49.641602 1.7674998 70
-80.952538 49.722179 1.757517 265
-80.743668 49.678978 1.7800125 283
-133.69432 49.966675 1.6529853 90
-132.29376 49.95121 1.6801238 172.5
-124.7171 49.825188 1.7663581 56
-81.076523 49.841061 1.7672547 241
-80.361923 49.818481 1.7311661 213.5
-73.147926 49.873001 1.7797061 81
-133.24141 50.065704 1.7581078 102
-132.66299 50.106201 1.6288027 76
-132.36467 50.031288 1.7081025 114
-133.83391 50.406387 1.7666559 84
-127.04848 50.771141 1.7594378 276
-126.96537 50.732376 1.7692169 173
-134.70981 50.848743 1.6954842 133
-127.05922 50.843338 1.7981629 186
-135.49669 51.058159 1.7742476 64
-81.13414 51.112923 1.6294727 415
-134.68994 51.230423 1.6216271 82
-137.20166 51.576439 1.7912393 77
-136.18272 51.400787 1.6874828 251
-81.262001 51.455582 1.6099997 355
-81.066109 51.436836 1.7386607 173
-80.889877 51.409672 1.6984938 251
-138.15816 51.753265 1.7988179 127
-136.52248 51.633324 1.6306368 112
-135.53389 51.651199 1.6403546 78
-138.233 51.884998 1.7770586 119
-138.19879 51.898911 1.7913519 144
-137.86887 51.874344 1.6949326 214
-137.64658 51.907211 1.6913564 193.75
-137.45882 51.918228 1.7303935 162.5
-137.33337 51.967236 1.787402 96
-139.25652 52.199596 1.6868392 178
-138.62535 52.149151 1.7486563 80
-138.55084 52.130356 1.692681 117
-138.36504 52.166809 1.7158345 151
-138.10219 52.177864 1.7813678 132
-137.96707 52.136906 1.7449328 218.5
-137.48416 52.077599 1.7877359 74
-140.12431 52.329498 1.7567608 157
-139.82422 52.366341 1.7284229 251
-138.60948 52.279236 1.7648013 78
-138.53882 52.290253 1.6497741 123
-138.02136 52.233585 1.7305369 117.66666
-130.60994 52.377468 1.7351333 45
-139.95386 52.453644 1.6560003 208
-130.69185 52.538143 1.7300763 157
-85.711906 52.571194 1.7855977 173
-140.18239 52.755951 1.7002252 131
-140.64539 52.994774 1.6027385 146
-140.46326 52.969467 1.6941361 101
-140.29149 52.827366 1.7946582 167
-141.83905 53.146458 1.6999667 200
-140.65378 53.04195 1.6130319 138
-140.4397 53.029427 1.766749 130
-157.69762 53.767761 1.6649488 216
-156.1407 53.796043 1.6330004 248
-148.47128 53.702377 1.6250867 191
-148.07126 53.736404 1.7002329 194.5
-163.67308 53.977081 1.7637829 148
-161.34094 53.916321 1.7285748 209.33333
-157.32961 53.906918 1.7580463 220
-153.23851 53.973389 1.653952 136
-151.87331 53.985954 1.669651 339
-151.16623 53.907505 1.7279392 111
-150.58427 53.89357 1.7715101 152
-150.38876 53.831944 1.6817869 175
-148.84441 53.840508 1.6504033 131
-147.75688 53.839912 1.7415031 331
-144.24786 53.993141 1.6040344 167
-82.755409 53.911865 1.6524578 298
-82.578766 53.811401 1.6355612 436
-166.75211 54.184563 1.6008991 204
-164.33203 54.198128 1.7222613 233
-164.03648 54.191338 1.7154042 214
-163.71478 54.175198 1.7469268 261
-163.49295 54.063061 1.6331539 203
-162.90894 54.174656 1.7782909 222
-161.91393 54.110073 1.6158599 294
-160.6848 54.148834 1.7973464 223
-160.0833 54.161472 1.6967752 266
-159.92615 54.181179 1.6896782 193
-158.59872 54.084465 1.7668217 189
-158.35303 54.108829 1.6439548 195
-158.01411 54.067963 1.7103518 187
-157.82574 54.103447 1.7955236 386
-157.46515 54.095211 1.6164832 252
-157.22263 54.083565 1.6098399 199
-156.85855 54.050816 1.7103647 228
-156.75624 54.085815 1.625367 204.66667
-154.72952 54.139214 1.7328812 180.5
-153.27362 54.148651 1.697069 169
-152.98213 54.082127 1.7360404 106
-152.73708 54.102135 1.7264823 147
-151.9491 54.106155 1.7890627 52
-150.73148 54.061142 1.6559252 99
-150.25089 54.034088 1.7526145 118
-149.61105 54.150711 1.7137084 179
-149.0213 54.108456 1.6969455 201.5
-148.07193 54.095234 1.6442186 180.5
-142.69881 54.171169 1.6903503 50
-83.014366 54.119423 1.6790264 174
-168.73135 54.23777 1.6545315 143
-167.45949 54.33514 1.6861809 189.5
-167.37421 54.383999 1.7988167 209
-165.66107 54.342854 1.6910263 153
-163.92537 54.306278 1.6460407 211.5
-162.8239 54.205643 1.7225056 232
-162.78824 54.255325 1.720746 185.5
-161.86584 54.300922 1.7333441 251
-161.4044 54.273186 1.659433 211
-160.06145 54.204842 1.7709453 222
-155.76709 54.334007 1.6244872 241
-154.71762 54.208214 1.6614828 207.5
-154.59471 54.204796 1.6859504 152
-148.8156 54.264397 1.7892326 145.5
-136.47432 54.325378 1.6952276 223.5
-83.008133 54.271393 1.6402358 55
-173.88484 54.445686 1.7302282 109
-172.69963 54.544495 1.6997176 85
-171.48703 54.472706 1.6610548 137
-165.48563 54.550301 1.6235429 134
-162.48613 54.439514 1.6323161 171.5
-162.34801 54.513733 1.6232033 218
-169.12166 54.732922 1.7140425 147.33333
-169.94608 54.913956 1.6816498 156
-171.6568 55.058945 1.6587623 55
-170.58047 55.247219 1.6311374 54
-170.27505 55.262611 1.605894 74
-172.83812 55.761589 1.7454016 41
-145.14374 56.169147 1.6235921 285
-178.06746 56.37104 1.7613544 28
-171.15263 56.327904 1.6618791 59
-145.23331 56.307114 1.7261568 94
-145.00269 56.201111 1.7908906 146
-172.64415 56.587948 1.7445371 59
-179.49837 56.795441 1.6922902 58
-164.05272 56.721394 1.7161541 238.33333
-163.93962 56.736202 1.6915234 161.28572
-154.24911 56.722862 1.6606337 301.79999
-154.15697 56.721222 1.6956139 274.66666
-172.60626 56.995655 1.7643481 64
-172.51147 56.983994 1.6932805 112
-172.04269 56.818657 1.6773064 64
-170.37939 56.971558 1.6581889 95
-158.07169 56.998764 1.7306824 426
-170.96356 57.183784 1.6566024 19
-170.39273 57.136257 1.6806152 82
-158.23235 57.119339 1.7242256 405
-158.09396 57.040943 1.68769 281.79999
-157.97258 57.108604 1.7322402 136
-176.68346 57.369759 1.7630051 45
-176.58606 57.353661 1.7982566 31
-175.60652 57.362221 1.6953862 53
-173.97054 57.332943 1.6912751 25
-173.17377 57.373013 1.6628101 76
-172.08316 57.38303 1.6358529 55
-169.18341 57.385803 1.6086199 34
-180.23172 57.466427 1.6616617 61
-176.47766 57.436714 1.7185488 47
-172.75076 57.416298 1.6526933 45
-172.04608 57.41288 1.6028165 61
-181.67859 58.088692 1.7348456 37
-179.00211 58.229683 1.6468277 49
-177.5188 58.509342 1.6084429 37
-88.940292 59.655586 1.6378274 250
-178.07538 59.813671 1.6542993 65
-178.56088 60.153366 1.6870303 47
-175.00368 60.263538 1.6083829 59
-179.4727 60.494804 1.7324619 35
-176.90186 60.653439 1.658159 42
-178.27998 60.914536 1.7506313 26
-175.63588 60.887817 1.6440932 24
-174.25394 60.992828 1.6195521 36
-89.568832 60.954609 1.6918226 65
-178.22368 61.168934 1.7114899 43
-180.22136 61.249886 1.7932111 39
-175.06845 61.252575 1.6205404 42
-179.34665 61.578087 1.7454044 53
-175.61697 61.798065 1.6503187 34
-173.80719 61.934967 1.6098511 47
-177.34476 62.014698 1.7040741 27
-174.11212 62.067852 1.6348571 33
-169.75005 62.461975 1.6192944 36
-178.68042 62.755638 1.7872367 42
-175.95001 62.701447 1.7628173 21
-172.01453 62.719933 1.6705992 30
-176.02989 62.814255 1.7136115 40
-173.9509 62.882263 1.7425319 42
-174.83134 63.001045 1.6977187 32
-169.11218 63.106594 1.6229026 20
-176.40048 63.50602 1.7582411 35
-171.89435 63.589645 1.6753436 23
-90.585739 63.556599 1.6113235 133
-175.85651 63.694542 1.7232985 51
-174.01227 64.121033 1.7301662 58
-173.11237 64.189583 1.7719738 63
-171.14029 64.164841 1.70455 73
-169.73404 64.145638 1.6334912 70
-168.87354 64.065941 1.6556911 33
-168.74249 64.158081 1.63831 40
-176.93515 64.263107 1.7887518 139
-174.99951 64.239334 1.793406 94
-172.86287 64.259727 1.7061338 167.5
-171.96436 64.207375 1.6797813 160
-171.50725 64.30629 1.6851799 29
-171.25751 64.383278 1.6913143 95
-170.00023 64.273666 1.6314312 185
-77.715012 64.323479 1.7902846 42
-174.1201 64.504326 1.7379813 75
-171.71426 64.554108 1.6869493 116
-171.01768 64.505119 1.6610442 110
-168.64642 64.568619 1.6027102 107
-175.89677 64.795891 1.7833924 45
-168.03322 64.665794 1.6168318 95
-171.59659 64.944992 1.6647592 65
-175.18185 65.023705 1.7579024 46
-173.21568 65.156876 1.6914142 29
-169.21347 65.162148 1.642166 26
-173.1015 65.269287 1.6827703 40
-174.2052 65.475586 1.7180758 66
-171.53149 65.424049 1.6866814 21
-78.799316 65.436272 1.7129997 90
-174.74776 65.623268 1.7968304 29
-168.69467 65.647934 1.6398933 21
-172.83052 65.937065 1.7023369 54
-173.17422 66.011108 1.7644897 27
-170.15901 66.089569 1.6216868 56
-175.06047 66.348465 1.7566887 47
-172.83023 66.376556 1.7091523 51
-172.00427 66.367744 1.6668065 35
-171.91107 66.443192 1.6800411 54
-168.13527 66.501968 1.6121693 30
-174.04619 66.620949 1.7331597 44
-171.76378 66.907631 1.6508143 79
-170.70387 66.812737 1.6107191 63
-172.07054 67.154411 1.6585501 53
-175.64403 67.255287 1.7782332 56
-171.67296 67.205421 1.6734104 39
-79.577507 67.228104 1.7044452 95
-168.90878 67.568756 1.6468403 36
-168.75102 67.455109 1.6331712 27
-173.99416 67.633492 1.7217746 30
-168.34807 67.680481 1.6012212 39
-173.2569 67.830017 1.7513732 37
-176.57545 68.371391 1.7746048 54
-175.70558 68.394333 1.7595838 58
-173.97525 68.293594 1.7154021 57
-172.95316 68.301888 1.6701236 87
-172.07138 68.312912 1.6468285 53
-171.69096 68.241669 1.644742 99
-171.34607 68.326279 1.6139436 55
-91.248489 68.388405 1.6258547 117
-175.0162 68.422615 1.7367153 62
-174.83839 68.487869 1.7732866 39
-174.11064 68.44622 1.7118274 40
-173.09293 68.460098 1.6779255 43
-172.04466 68.469238 1.6486433 42
-91.349838 68.498062 1.6486515 159
-171.78606 68.676483 1.6590124 29
-169.1701 68.70034 1.6302589 29
-80.986496 69.186989 1.7728244 106
-80.873505 69.329453 1.7381818 94
-172.21851 69.692909 1.60981 57
-175.39053 69.887466 1.6921908 36
-174.50227 69.928696 1.6685942 46
-173.21603 69.923065 1.6523426 30
-176.01219 70.603882 1.7020258 44
-174.62009 70.754166 1.6476984 55
-172.19901 70.611717 1.6113416 45
-172.37755 71.474594 1.7709014 50
-172.10345 71.499611 1.7734718 24
-170.92177 71.49234 1.7546937 42
-170.11798 71.472107 1.7240533 59
-169.8905 71.489532 1.7264774 56.5
-169.1951 71.514259 1.7060627 58
-168.88574 71.494652 1.6811596 72
-168.30646 71.465645 1.6784508 28
-168.07715 71.477646 1.6781114 98
-167.75671 71.503586 1.672959 39.5
-167.02716 71.504662 1.6475306 49
-166.90851 71.469658 1.6352282 84
-166.6515 71.540184 1.6448103 38
-166.57056 71.469635 1.7060022 22
-166.28366 71.491936 1.6121318 44
-165.6918 71.501907 1.6177539 108.25
-165.4794 71.516899 1.6135223 35
-164.69804 71.504784 1.6176662 45.5
-144.3204 71.594734 1.7006419 86
-144.17676 71.497162 1.6418356 91
-137.49956 71.583221 1.7797432 419
-137.25334 71.567352 1.7806196 505
-133.33972 71.591202 1.7120081 51
-165.98848 71.735886 1.7036549 73
-165.67279 71.605949 1.671947 42
-145.64299 71.784851 1.6237048 244.5
-144.4547 71.711365 1.6324921 310
-144.28911 71.720673 1.7256664 111.33334
-144.15993 71.657288 1.7435081 662.5
-143.30002 71.747528 1.6961727 485
-142.22176 71.796745 1.7723715 182
-141.79259 71.772652 1.7046164 53
-139.5479 71.7603 1.6832321 157.39999
-137.405 71.720039 1.6979532 28
-135.79681 71.73877 1.7194605 119
-135.50375 71.747437 1.7881887 143
-134.75893 71.779839 1.6264786 209
-134.50519 71.750549 1.7397653 124
-134.35149 71.668358 1.62885 25
-133.89211 71.685234 1.6939814 282.42856
