# .PCD v0.7 - Point Cloud Data file format
VERSION 0.7
FIELDS x y z intensity roll pitch yaw time
SIZE 4 4 4 4 4 4 4 8
TYPE F F F F F F F F
COUNT 1 1 1 1 1 1 1 1
WIDTH 124
HEIGHT 1
VIEWPOINT 0 0 0 1 0 0 0
POINTS 124
DATA ascii
0 0 0 0 0.0030797895 -0.01887353 0 1.5647192e+09
-2.0285423 0.050414335 0.013439913 1 0.001429109 -0.016790166 -0.017838685 1.5647192e+09
-3.0503793 0.088763833 0.017281085 2 0.00074616651 -0.021212919 -0.02665229 1.5647192e+09
-4.0575914 0.13203132 0.013855058 3 0.00082612754 -0.024013974 -0.035630409 1.5647192e+09
-5.0827484 0.19163032 0.014123262 4 0.001084919 -0.021605989 -0.044995867 1.5647192e+09
-6.1082749 0.25766116 0.0029131477 5 0.0015081214 -0.0181513 -0.054232113 1.5647192e+09
-7.1271558 0.3290059 0.009025 6 0.0018137697 -0.017017117 -0.0630612 1.5647192e+09
-8.1514816 0.40859345 0.013577806 7 0.0021830979 -0.016132103 -0.071396679 1.5647192e+09
-9.1946936 0.50169539 0.018391166 8 0.0025621958 -0.015455099 -0.079301484 1.5647192e+09
-10.215316 0.59992707 0.024327608 9 0.0029216907 -0.015896356 -0.086581983 1.5647192e+09
-11.264685 0.70163482 0.026038585 10 0.0032799558 -0.017121768 -0.09427236 1.5647192e+09
-12.309949 0.81828249 0.023244511 11 0.0037317583 -0.018475305 -0.10214214 1.5647192e+09
-13.351358 0.94172645 0.015957739 12 0.0039149853 -0.019332157 -0.10964258 1.5647192e+09
-14.387197 1.0726066 0.013398415 13 0.0038415131 -0.019225014 -0.11647786 1.5647192e+09
-16.498011 1.3567977 0.023599207 14 0.0043722247 -0.017253025 -0.13062502 1.5647192e+09
-17.53422 1.5073529 0.03171514 15 0.0049796016 -0.016605651 -0.13727887 1.5647192e+09
-18.601837 1.6704414 0.032945979 16 0.0052952962 -0.016132953 -0.14418033 1.5647192e+09
-19.655277 1.835353 0.040720817 17 0.0058915662 -0.017093856 -0.15131065 1.5647192e+09
-20.717672 2.0101948 0.045417696 18 0.0065027885 -0.017403759 -0.15844132 1.5647192e+09
-22.851496 2.383127 0.069982678 19 0.0073364694 -0.016500613 -0.17259978 1.5647192e+09
-23.922796 2.5800903 0.084056705 20 0.0080754384 -0.016144887 -0.17977852 1.5647192e+09
-27.122618 3.2434816 0.10292993 21 0.0069823246 -0.020778067 -0.20277031 1.5647192e+09
-29.260639 3.73681 0.10156362 22 0.0074687391 -0.016678657 -0.21832478 1.5647192e+09
-30.332905 3.9941871 0.097073272 23 0.0085116839 -0.014317401 -0.22587682 1.5647192e+09
-31.41593 4.260417 0.096139513 24 0.0088944202 -0.013123643 -0.23394509 1.5647192e+09
-32.490902 4.5351896 0.10470899 25 0.0099004805 -0.012117038 -0.24172521 1.5647192e+09
-33.562141 4.8087916 0.1207367 26 0.010167122 -0.012272335 -0.24955404 1.5647192e+09
-34.640926 5.1003423 0.13316603 27 0.010751093 -0.012655765 -0.25804043 1.5647192e+09
-35.701836 5.4057021 0.14767249 28 0.010878894 -0.012056698 -0.26643091 1.5647192e+09
-36.762447 5.7087927 0.16758449 29 0.011086058 -0.010709056 -0.27528378 1.5647192e+09
-38.847176 6.3467588 0.21310565 30 0.0097500477 -0.0056971144 -0.29239932 1.5647192e+09
-40.931816 7.0283666 0.24531323 31 0.0093832891 -0.0059984531 -0.30992383 1.5647192e+09
-41.97123 7.368556 0.2784681 32 0.012165844 -0.0083086891 -0.32006291 1.5647192e+09
-42.986168 7.7274289 0.28748253 33 0.012133396 -0.0073244367 -0.32967192 1.5647192e+09
-45.016529 8.4566355 0.38410929 34 0.0046293363 -0.017188009 -0.35172859 1.5647192e+09
-47.029057 9.2571115 0.39104351 35 0.0052069267 -0.016339539 -0.37312093 1.5647192e+09
-48.017376 9.6687307 0.41279745 36 0.0050641592 -0.014929747 -0.38402912 1.5647192e+09
-50.997257 10.972314 0.43571609 37 0.0090068812 -0.017292432 -0.41865143 1.5647192e+09
-52.933666 11.907841 0.4584395 38 0.011526974 -0.018215314 -0.44412029 1.5647192e+09
-53.906593 12.389559 0.47377092 39 0.011098876 -0.01592 -0.45801502 1.5647192e+09
-54.867802 12.893842 0.48984247 40 0.01009549 -0.013485164 -0.47126409 1.5647192e+09
-55.824444 13.397353 0.48997447 41 0.0088121835 -0.012293277 -0.48486364 1.5647192e+09
-56.777706 13.925912 0.48356488 42 0.0081943683 -0.012685388 -0.49836126 1.5647192e+09
-57.721661 14.466987 0.50186515 43 0.0081757642 -0.014259757 -0.51175112 1.5647192e+09
-58.653881 15.021018 0.52271003 44 0.0090716854 -0.015475255 -0.52474397 1.5647192e+09
-59.572468 15.584968 0.54243475 45 0.011327975 -0.014885635 -0.53733218 1.5647192e+09
-60.485992 16.156942 0.5628944 46 0.01211095 -0.013524509 -0.54955089 1.5647192e+09
-61.401348 16.744452 0.57527959 47 0.011417617 -0.011331865 -0.56196851 1.5647192e+09
-63.207527 17.943293 0.60152072 48 0.011332007 -0.0093692085 -0.58653915 1.5647192e+09
-64.095306 18.551352 0.60792983 49 0.010282569 -0.010071723 -0.59880471 1.5647192e+09
-65.842422 19.833807 0.65181792 50 0.0084883031 -0.012765682 -0.62211746 1.5647192e+09
-66.706795 20.481697 0.66717738 51 0.0085918931 -0.010200473 -0.63315451 1.5647192e+09
-68.423111 21.806793 0.70161486 52 0.0049637179 -0.0082108304 -0.65481019 1.5647192e+09
-70.098274 23.179304 0.7508055 53 0.0064682947 -0.010322418 -0.67611897 1.5647192e+09
-71.753151 24.560997 0.78210628 54 0.006089373 -0.0069683613 -0.69670302 1.5647192e+09
-72.572502 25.265011 0.81163728 55 0.0068218112 -0.0060964832 -0.70612592 1.5647192e+09
-73.376556 25.986145 0.83537543 56 0.0069257319 -0.0055595539 -0.71517217 1.5647192e+09
-74.180008 26.698631 0.85774338 57 0.0067956368 -0.0049537751 -0.72393328 1.5647192e+09
-74.970482 27.419729 0.87967575 58 0.0063875522 -0.0045035295 -0.73289144 1.5647192e+09
-75.753899 28.152018 0.90249431 59 0.006397306 -0.004890603 -0.74170303 1.5647192e+09
-76.527679 28.88072 0.92548347 60 0.0055417824 -0.0052964925 -0.75059056 1.5647192e+09
-77.290634 29.61729 0.9513604 61 0.0056098402 -0.0047539989 -0.75958526 1.5647192e+09
-78.04673 30.366966 0.97116804 62 0.0042763921 -0.0042785564 -0.76861709 1.5647192e+09
-78.788818 31.105747 0.99335313 63 0.0024201577 -0.0052483054 -0.77671176 1.5647192e+09
-79.525826 31.856794 1.0189754 64 0.0012281551 -0.0062328093 -0.7841754 1.5647192e+09
-81.708191 34.124779 1.0795085 65 0.00052050705 -0.010412196 -0.80250025 1.5647192e+09
-82.42318 34.884289 1.0956186 66 -0.0003933007 -0.011345942 -0.80829471 1.5647192e+09
-83.130547 35.644215 1.1099801 67 -0.0018338554 -0.012202415 -0.8133406 1.5647192e+09
-84.533684 37.172707 1.1414677 68 -0.0043750778 -0.013064249 -0.82134086 1.5647192e+09
-85.229034 37.938736 1.146834 69 -0.0062184776 -0.014231117 -0.82447696 1.5647192e+09
-85.926254 38.704601 1.1607374 70 -0.0099610705 -0.015904892 -0.82614428 1.5647192e+09
-86.627548 39.475384 1.1714581 71 -0.013532305 -0.016131232 -0.82600868 1.5647192e+09
-87.322136 40.23563 1.1925725 72 -0.016903918 -0.015051201 -0.82376623 1.5647192e+09
-88.023285 40.991116 1.211148 73 -0.017118163 -0.012818366 -0.81958938 1.5647192e+09
-88.724937 41.731224 1.2263399 74 -0.017722726 -0.010791166 -0.81543308 1.5647192e+09
-89.427879 42.460522 1.2370967 75 -0.017209524 -0.0095037483 -0.8110348 1.5647192e+09
-90.844109 43.929516 1.2828729 76 -0.014640072 -0.0085999258 -0.80091786 1.5647192e+09
-91.551727 44.645569 1.2980123 77 -0.014011276 -0.007093173 -0.79435968 1.5647192e+09
-92.266907 45.367455 1.3230969 78 -0.014105111 -0.0073466175 -0.78745437 1.5647192e+09
-92.988907 46.077511 1.3436772 79 -0.013264535 -0.0075990325 -0.77971959 1.5647192e+09
-93.713036 46.783863 1.3682835 80 -0.011749132 -0.0077071954 -0.77082473 1.5647192e+09
-94.441017 47.47448 1.3875277 81 -0.011014265 -0.0063940007 -0.76250321 1.5647192e+09
-95.89846 48.816368 1.4412282 82 -0.0079374257 -0.0022762052 -0.74530208 1.5647192e+09
-97.385658 50.144436 1.4829624 83 -0.0057148836 4.4083899e-05 -0.72753298 1.5647192e+09
-98.897034 51.432217 1.5335355 84 -0.0063305758 -0.0014591805 -0.7031492 1.5647192e+09
-100.43073 52.655399 1.5865602 85 -0.0064023742 0.00056982634 -0.67354137 1.5647192e+09
-101.99947 53.830921 1.6426603 86 -0.00521624 -0.0025174136 -0.64414793 1.5647192e+09
-105.22519 56.044407 1.7276504 87 -0.0050467411 -0.0032333266 -0.58539271 1.5647192e+09
-106.89528 57.082729 1.7820489 88 -0.0029447665 -0.0023635379 -0.55648977 1.5647192e+09
-108.58515 58.062408 1.8155111 89 -0.0010246428 -0.0046299179 -0.52717364 1.5647192e+09
-110.32162 59.002274 1.8424655 90 -0.0035393708 -0.0052292994 -0.49662617 1.5647192e+09
-112.07504 59.906334 1.9009773 91 -0.0095985383 0.00035437595 -0.46355227 1.5647192e+09
-113.8664 60.72617 1.9692184 92 -0.0097911833 0.0035834583 -0.42759052 1.5647192e+09
-116.64256 61.830585 2.0333657 93 -0.0071827681 -0.0058206161 -0.37101799 1.5647192e+09
-118.5247 62.486771 2.0602133 94 -0.0078791985 -0.0049004997 -0.33286941 1.5647192e+09
-120.44923 63.070866 2.1008594 95 -0.010468204 -0.001663861 -0.29497394 1.5647192e+09
-121.41022 63.346226 2.1365526 96 -0.012245839 -0.0022844844 -0.27695608 1.5647192e+09
-123.36717 63.834984 2.1755786 97 -0.0092402073 -0.006549892 -0.24455622 1.5647192e+09
-124.35207 64.059875 2.1953976 98 -0.0073286616 -0.0073017799 -0.23085465 1.5647192e+09
-126.34383 64.493408 2.2369192 99 -0.0051047518 -0.0043218881 -0.21127567 1.5647192e+09
-129.36792 65.087456 2.3117955 100 -0.0037369789 0.0042259926 -0.18507922 1.5647192e+09
-131.42354 65.440987 2.3747044 101 -0.0033477333 0.0025489603 -0.16989163 1.5647192e+09
-132.45361 65.614822 2.3979979 102 -0.0031944928 0.0016949844 -0.16242191 1.5647192e+09
-133.49512 65.786446 2.4239154 103 -0.004227831 0.0009121417 -0.15516916 1.5647192e+09
-134.53622 65.939476 2.4494572 104 -0.004453666 0.0006603314 -0.14855811 1.5647192e+09
-135.59322 66.089958 2.4766755 105 -0.0041790311 -0.00043239762 -0.14103152 1.5647192e+09
-136.63556 66.234428 2.4962869 106 -0.0040117414 -0.00058822089 -0.13433202 1.5647192e+09
-137.698 66.373032 2.5290577 107 -0.0043358724 -0.00025067764 -0.12719852 1.5647192e+09
-138.75397 66.496048 2.554265 108 -0.0030816901 0.0011791876 -0.1206092 1.5647192e+09
-139.81277 66.619911 2.576906 109 -0.0026346473 0.0027723161 -0.11399671 1.5647192e+09
-140.87141 66.742317 2.6053464 110 -0.0025407705 0.0030019314 -0.10820827 1.5647192e+09
-141.94926 66.856117 2.6305397 111 -0.0032568011 0.0022488013 -0.10258829 1.5647192e+09
-143.0204 66.970108 2.6571689 112 -0.0039516003 0.00040136441 -0.097260378 1.5647192e+09
-145.17848 67.172508 2.7158868 113 -0.0056188963 -0.00012296956 -0.087720938 1.5647192e+09
-146.26201 67.262421 2.7415657 114 -0.0062870327 0.002649128 -0.082978524 1.5647192e+09
-147.34476 67.356079 2.7708821 115 -0.0077790576 0.0031627088 -0.078615502 1.5647192e+09
-148.44348 67.436073 2.8021512 116 -0.0081491685 0.0030785478 -0.073821053 1.5647192e+09
-150.62997 67.595108 2.8648858 117 -0.0081780339 0.002140705 -0.06552393 1.5647192e+09
-151.72359 67.660629 2.8969696 118 -0.0086275917 0.0018713118 -0.062148865 1.5647192e+09
-152.83401 67.737717 2.9256902 119 -0.010343581 0.0018154836 -0.058142465 1.5647192e+09
-153.94141 67.803925 2.9541342 120 -0.012056833 0.0010531184 -0.054305654 1.5647192e+09
-155.04922 67.870537 2.9799252 121 -0.013287008 -0.00029115946 -0.050383359 1.5647192e+09
-156.1586 67.919701 3.0068793 122 -0.013116744 -0.0015644416 -0.047143023 1.5647192e+09
-157.27464 67.969269 3.0374746 123 -0.012263493 -0.0011203873 -0.043740198 1.5647192e+09
