# .PCD v0.7 - Point Cloud Data file format
VERSION 0.7
FIELDS x y z intensity
SIZE 4 4 4 4
TYPE F F F F
COUNT 1 1 1 1
WIDTH 1332
HEIGHT 1
VIEWPOINT 0 0 0 1 0 0 0
POINTS 1332
DATA ascii
-108.14935 -18.79715 2.7120659 41
-64.442612 -18.702065 2.7362776 236
-63.402946 -18.66614 2.6626687 195
-52.735584 -18.642765 2.6372154 214
-110.09142 -18.565662 2.6389837 153
-71.901108 -18.309031 2.7512789 346
-64.571442 -18.244616 2.7184653 255
-64.390808 -18.204498 2.7652407 221
-48.376198 -18.31963 2.7899821 242
-47.454269 -18.278118 2.6559155 145
-2.2832501 -18.265299 2.7556481 94.5
-2.154882 -18.289326 2.748724 123
-0.66074944 -18.224234 2.616282 217
-0.3109107 -18.397594 2.7426171 176
-72.42894 -18.093781 2.6260204 50
-72.349998 -18.081207 2.7199075 338.5
-69.316788 -18.15155 2.78771 206
-64.60537 -18.186489 2.7461534 263
-64.568001 -18.149929 2.7768474 298
-60.806244 -18.137873 2.7983108 191
-48.713005 -18.150234 2.7864664 109.5
-2.3381631 -18.135742 2.6871977 110
-1.945694 -18.195557 2.7631376 75
0.25720501 -18.106916 2.7251947 102
-72.254341 -17.890213 2.7320206 261
-72.178986 -17.986177 2.6031661 334
-46.068317 -17.855721 2.6466246 364
-45.87328 -17.856874 2.71471 105
-45.771004 -17.875322 2.7999821 246
-39.015751 -17.855255 2.7417021 244
-38.99358 -17.817978 2.7461693 167
-26.61528 -17.942591 2.6523571 262.5
-70.525848 -17.646324 2.710938 388.5
-46.842388 -17.659174 2.6974189 327.33334
-46.667618 -17.662766 2.7952344 311
-46.516045 -17.706892 2.7355306 272
-46.283855 -17.689278 2.7010312 314
-46.106644 -17.712807 2.6729844 220.75
-45.991241 -17.775452 2.6039829 45
-45.716892 -17.778105 2.7981958 105
-38.708279 -17.74268 2.6380603 244
-37.658638 -17.767607 2.6820316 185.5
-54.699097 -17.424187 2.6918352 31
-48.126415 -17.432526 2.6975808 300
-47.871471 -17.483994 2.7420723 375.33334
-46.93692 -17.428131 2.6593065 318.5
-46.476952 -17.461632 2.6192002 410.5
-38.146393 -17.531204 2.6036234 321
-37.180882 -17.418957 2.7524824 214
-70.254807 -17.2463 2.69976 351.5
-70.118118 -17.293278 2.7439134 383
-69.889618 -17.292831 2.7456017 141.33333
-69.734703 -17.274328 2.760118 281.5
-48.343136 -17.244406 2.7045484 208
-47.843235 -17.30014 2.6291018 150
-47.670532 -17.396896 2.7764502 231
-47.599689 -17.283646 2.6850786 252
-36.776955 -17.337696 2.7791893 139
-0.70996737 -17.238274 2.7470095 175
-70.135139 -17.169889 2.7405117 218.66667
-64.290375 -17.03742 2.7245524 304.66666
-54.818512 -17.033659 2.740428 266
-48.615707 -17.019537 2.7711134 385
-48.53743 -17.057264 2.7277029 276.79999
-47.475155 -17.143204 2.7600284 277
-47.325363 -17.123407 2.7051291 157
-36.47496 -17.176575 2.6816111 200
-30.374062 -17.034136 2.6033859 222
-28.865799 -17.113033 2.6165752 215.5
-108.08612 -16.860722 2.7676167 163
-64.111488 -16.894804 2.6566408 275.33334
-54.881287 -16.883106 2.7023199 323
-48.616985 -16.993767 2.7994828 410
-48.580227 -16.967773 2.7712083 177
-47.317169 -16.91408 2.6838553 354
-47.141983 -16.88216 2.6522241 351.25
-46.894253 -16.973061 2.7045064 268
-46.106586 -16.917095 2.7991073 37
-36.501228 -16.840536 2.6435978 182
-30.422947 -16.960808 2.6000874 144
1.1175718 -16.932674 2.7800264 236
-108.13 -16.687422 2.7848804 110
-63.833988 -16.658873 2.6076064 272
-63.745388 -16.710827 2.6970527 304.5
-60.856411 -16.609768 2.7844102 235
-54.617119 -16.73455 2.603332 22
-47.310265 -16.792065 2.7924492 332
-47.05442 -16.765823 2.645 282
-46.97047 -16.623468 2.6715608 361
-60.954773 -16.43577 2.7741392 443
-54.546394 -16.549543 2.6939859 570
-46.88147 -16.495413 2.7358389 344.66666
-46.758709 -16.470875 2.7910519 490
-26.580452 -16.516151 2.707984 318
6.3339615 -16.521925 2.6827307 207
7.2687702 -16.528479 2.6401742 170
7.6331291 -16.483929 2.7766557 205
-63.515289 -16.259146 2.6606948 149
-63.374977 -16.266228 2.6065283 452
-60.966347 -16.262203 2.7474246 283.5
-29.530359 -16.268763 2.7158237 208.5
-29.301352 -16.328199 2.6873305 201
-28.627254 -16.313414 2.6664505 100
-28.290771 -16.233253 2.6394994 316
-28.094074 -16.261868 2.6543534 239.60001
-27.985023 -16.251196 2.6965489 190
7.2624903 -16.378672 2.6308913 127
7.6079111 -16.203266 2.6865976 102
-63.418297 -16.079111 2.7999735 187
-62.866287 -16.158928 2.627007 207
-62.037865 -16.037548 2.6291649 205
-61.053104 -16.070776 2.7182822 333.5
-31.007025 -16.086184 2.6568985 145
-30.816994 -16.142788 2.6002119 215
-30.666374 -16.150364 2.7208681 265.5
-30.41551 -16.04113 2.7628706 223
-29.021374 -16.047766 2.694396 38
-28.73629 -16.003334 2.6132417 240
-28.112089 -16.137524 2.7227855 215
-63.435261 -15.922357 2.7024968 403.33334
-52.093559 -15.86685 2.7456057 410
-51.971828 -15.879139 2.6371732 419
-44.574623 -15.817106 2.6994128 282
-28.931789 -15.937208 2.7813499 202
-28.681309 -15.87899 2.659584 240.5
7.7409115 -15.890148 2.6547275 111
-61.350151 -15.67577 2.7641149 148
-54.324112 -15.713407 2.7559876 238
-52.252796 -15.725782 2.7458577 480
-52.015816 -15.646839 2.6914022 67
-51.929337 -15.789652 2.6768494 261
-44.519623 -15.713565 2.6835725 56
-44.324966 -15.71922 2.6580851 451
-44.096008 -15.701318 2.6510379 372
-29.016464 -15.692401 2.7622991 209
-28.844093 -15.791705 2.7384961 219
-28.746517 -15.688718 2.6421828 215.75
-28.546885 -15.672883 2.7376213 270
-27.184334 -15.671551 2.7896564 53
-22.188213 -15.604478 2.7692144 194
-61.525681 -15.588318 2.6351156 141
-54.400009 -15.459936 2.788342 555
-54.109322 -15.459462 2.6528668 561
-53.875023 -15.532862 2.726475 574
-53.776714 -15.598196 2.7194748 533
-48.234993 -15.407238 2.6557598 169.5
-44.51923 -15.557683 2.6385357 264.66666
-44.399624 -15.448692 2.6529613 138
-32.49268 -15.42588 2.7877705 245
-28.813662 -15.574402 2.7449551 377
-28.699646 -15.540894 2.767015 344.5
-28.548607 -15.475062 2.7540178 375
-22.122438 -15.428578 2.7114656 203
-54.337521 -15.366829 2.7495742 414
-41.833931 -15.258901 2.6756253 247
-37.580181 -15.283863 2.679378 242
-32.626968 -15.315384 2.7975712 368
-32.283279 -15.286205 2.6201351 221
-26.874435 -15.311026 2.6983368 84
-22.349323 -15.242452 2.7938094 203
-22.096035 -15.378366 2.626642 200
-19.880634 -15.322858 2.6554224 33
11.357247 -15.277273 2.7919936 22
-53.195595 -15.191086 2.6712923 467
-52.950024 -15.126748 2.6613936 540.5
-52.716885 -15.025838 2.6892607 229.5
-41.872791 -15.145522 2.6511915 278.33334
-41.732239 -15.089388 2.6385305 194
-26.568598 -15.110973 2.6089303 63
-22.413954 -15.19294 2.6364071 323
-53.105938 -14.959091 2.7734077 545
-52.655052 -14.90711 2.7232111 570
-52.261475 -14.88297 2.7409508 496
-44.287415 -14.842983 2.7220755 419
-43.182724 -14.844734 2.6090508 657
-41.858517 -14.908713 2.7039204 237.16667
-41.792953 -14.945856 2.703186 353
-34.844631 -14.869465 2.7910185 305
11.568987 -14.867867 2.6439686 31
-44.312836 -14.746368 2.6699088 250
-42.547981 -14.707932 2.6445527 615.5
-36.32719 -14.61095 2.6885939 308
-34.407875 -14.679423 2.7716982 351
-108.2926 -14.5108 2.7328463 17
-44.436153 -14.501754 2.7386878 319
-44.359604 -14.481039 2.7571256 484
-44.154556 -14.594502 2.6230972 546
-43.074505 -14.476718 2.7368946 443.33334
-33.891418 -14.432514 2.769733 520
-26.645456 -14.56344 2.7777548 542
-26.574377 -14.485304 2.7947698 482
-22.72514 -14.429894 2.7605214 339
-44.33897 -14.313092 2.7431273 251.60001
-43.640362 -14.355326 2.7399549 553
-43.575768 -14.348276 2.7426925 460
-36.879917 -14.291277 2.6202779 319
-33.695019 -14.364815 2.7747078 512
-33.269859 -14.328378 2.6948593 240
-26.319603 -14.382765 2.6592221 424
-22.696373 -14.26495 2.7850363 270
1.4201045 -14.22927 2.7868583 145
12.037602 -14.371004 2.7368271 157
-37.116268 -14.107782 2.6537883 507
-34.413662 -14.140999 2.7108064 603
-33.434074 -14.085228 2.6848884 545
-33.39822 -14.100536 2.6326914 445
-36.832134 -13.901109 2.6691978 432
-34.406677 -13.877209 2.6855524 437
-34.378891 -13.916767 2.7322152 331
-22.824463 -13.905234 2.7541695 172
-37.123001 -13.720942 2.6101136 367
-36.922642 -13.669806 2.6846657 452.33334
-34.465702 -13.762997 2.6912851 330
-25.214218 -13.721889 2.661392 237
-25.088654 -13.756062 2.6764429 393
-24.439022 -13.660063 2.6821194 411
-24.35076 -13.648396 2.7517123 235
-24.194412 -13.727063 2.6786599 451
-23.424614 -13.642118 2.6545205 454
-23.263327 -13.675755 2.6740191 221.33333
-23.101679 -13.645543 2.7072461 351.39999
-22.951439 -13.766708 2.6517711 374.5
-108.79677 -13.472811 2.790695 25
-24.868799 -13.512828 2.6267085 143
-24.62042 -13.472301 2.6489654 224
-24.542084 -13.544247 2.6511872 424
-24.322802 -13.464563 2.6220579 364
-23.695194 -13.52099 2.7278731 438.5
-23.248831 -13.546161 2.7602141 420
-118.32182 -13.226942 2.628686 217
-118.115 -13.204082 2.6527064 241
-23.567034 -13.379488 2.7679257 437
-23.393101 -13.332469 2.7435169 172
13.498216 -13.209385 2.6276445 122
-118.32825 -13.184174 2.620168 270
-23.754551 -13.139386 2.7827129 87
-108.75143 -12.862562 2.7809958 18
-108.46836 -11.231281 2.7543316 17
-108.62422 -11.12097 2.7197413 19
-108.41974 -10.648857 2.7925549 78
-108.18054 -9.3564148 2.7420745 39
-111.78351 -7.0528135 2.7299123 52
-111.81207 -6.972312 2.7228603 42
-84.432831 -0.61025715 2.7428224 238
-59.68108 -0.6411047 2.7882233 335
-65.869904 -0.42155504 2.6383462 654
-84.259315 -0.3076787 2.6481152 361.5
-84.149094 -0.31859159 2.628165 574
-83.457207 -0.20603848 2.7523544 450
-76.479782 -0.29491234 2.663151 250
-76.366768 -0.24506743 2.6684105 264.66666
-76.187134 -0.25950551 2.7238965 427
-75.869049 -0.3558526 2.6852541 350
-75.727463 -0.28231335 2.7168005 458
-75.591911 -0.26202869 2.728303 463
-75.276489 -0.37328243 2.7172554 282
-75.127022 -0.28761435 2.7107162 524
-65.865082 -0.33391634 2.6841812 601.33331
-65.626007 -0.37556458 2.7054415 644
-65.463547 -0.27846301 2.713882 653.25
-65.242233 -0.29837608 2.6159275 574.5
-65.143959 -0.24676037 2.6433063 716
-64.516869 -0.20864947 2.7146034 413.66666
-62.01973 -0.20733595 2.6055131 95
-58.290676 -0.3280468 2.6975281 660
-57.896633 -0.2900911 2.7075076 523.85712
-57.774437 -0.22346306 2.6496785 438
-84.000732 -0.13520813 2.6080732 206
-83.308624 -0.13063741 2.701921 223.5
-83.190758 -0.1742506 2.6550899 247
-76.264496 -0.107023 2.6893458 535.5
-76.178543 -0.11916542 2.7508559 330
-75.888229 -0.10925674 2.6890402 495.5
-75.349426 -0.093980312 2.7191887 470
-75.092407 -0.13211823 2.6842928 313
-65.31575 -0.081139565 2.7105083 545.5
-64.817917 -0.18001652 2.656069 441
-64.51461 -0.18360233 2.6522722 639.5
-64.351906 -0.10654783 2.6745403 364.33334
-64.187843 -0.10142088 2.6779261 484
-63.838261 -0.031485558 2.7874064 368
-61.921379 -0.15252611 2.6983016 223.78572
-57.928707 -0.11230326 2.6129422 385
-57.699139 -0.15096729 2.6626055 640.66669
-57.491734 -0.072124004 2.7043915 646
-84.990837 0.146842 2.7652981 515
-76.015472 0.11733437 2.6606731 474
-75.694908 0.12966156 2.6418824 240
-75.31414 0.037842274 2.7420244 99
-75.128418 0.043007851 2.798106 161
-74.964905 0.079138279 2.7496328 332
-65.281349 0.049123526 2.7252026 711
-64.263123 0.095268406 2.6902783 463.33334
-64.082153 0.0467817 2.7560596 603.33331
-63.856827 0.059088945 2.7860422 643.5
-57.679771 0.12319183 2.665947 550
-57.570282 0.079912506 2.6427193 680.33331
-57.313477 0.1162498 2.6586416 577.5
-85.089317 0.23310471 2.6750171 147
-75.911087 0.29832983 2.7379739 393
-109.96352 0.51102042 2.6667027 206
-85.143944 0.59777546 2.6137204 320
-57.209553 0.54229546 2.7142575 746
-57.097687 0.69944227 2.7154968 474.60001
-57.108978 0.8295666 2.729877 496
-56.926071 0.84789848 2.7857633 672
-13.888895 0.90749007 2.7074077 447
-64.793739 1.037622 2.7844572 407
-13.481361 1.1420176 2.6393266 400
-13.384789 1.0337292 2.6324496 254
-36.894753 1.4523033 2.7574689 431.25
-36.882412 1.6890087 2.6628165 522.29999
-36.674419 1.7076019 2.687557 613.75
-36.515118 1.7561879 2.7329261 377
-36.315247 1.6987842 2.7502625 396.60001
-36.080204 1.759716 2.7352915 589.33331
-81.883072 1.8956175 2.659642 343
-57.496582 1.8107996 2.6091223 332
-49.698532 1.9290955 2.6325474 530.5
-49.505978 1.9796817 2.6269689 440
-49.181183 1.9699874 2.6296248 426
-39.747711 1.9449995 2.7253191 337
-39.54356 1.8954372 2.7611547 44
-39.240662 1.9520421 2.7580433 584.5
-39.004509 1.9758935 2.6698413 358
-38.956543 1.9913785 2.7507849 515
-36.921692 1.9037969 2.715389 481.5
-36.661583 1.9308794 2.6524611 627.5
-36.481892 1.9320476 2.7055628 288
-36.352619 1.8970389 2.6821153 640
-36.131695 1.9549786 2.7432282 604.33331
-35.946346 1.8655479 2.7339301 440.75
-35.691177 1.9258339 2.7473273 593.5
-82.488579 2.131546 2.7420928 327
-81.68824 2.0630772 2.6131778 297.33334
-81.264984 2.1653347 2.6621976 343
-81.111603 2.1340923 2.6478019 179
-49.521652 2.1961255 2.679338 481
-49.32283 2.093328 2.6420681 700
-48.499252 2.166317 2.7644942 114
-41.285309 2.0777915 2.7860169 478
-41.130791 2.1561031 2.7442527 649.20001
-39.87952 2.0740404 2.6679566 520.66669
-39.690571 2.154968 2.6743355 448.66666
-39.231354 2.1022396 2.7011278 602
-39.073246 2.0339541 2.7443855 466
-38.808083 2.0871067 2.7330062 420
-37.520584 2.1919823 2.7802143 545
-36.80434 2.179987 2.7545874 581
-36.206635 2.0846472 2.6521575 427
-35.666714 2.1453876 2.6481521 413.33334
-35.55883 2.1739902 2.7123628 523
-82.672562 2.3275042 2.7314186 298
-82.296677 2.2978411 2.6301692 293
-49.522896 2.3168564 2.7648365 446
-47.87233 2.2321243 2.7099981 390.5
-41.068237 2.2189393 2.7377439 623
-39.846439 2.2759972 2.7458236 667
-39.465961 2.2175136 2.639915 334
-39.394634 2.2317963 2.6288085 536
-39.193211 2.3830848 2.7387476 754
-37.476501 2.295095 2.7240665 584
-37.345547 2.3779778 2.7323308 551
-36.795815 2.2069178 2.6713889 617
-36.589409 2.2969398 2.6204638 391
-36.288151 2.2381413 2.6786051 528.5
-36.134964 2.3376431 2.7475107 426.5
-35.661583 2.2190127 2.6820197 665
-35.536869 2.3006871 2.7444546 473.66666
-35.366295 2.3738241 2.7084537 624.5
-34.684509 2.3804731 2.6698105 299
-34.527447 2.3657341 2.7040982 372
-34.231499 2.357626 2.6771073 395
-34.143776 2.3664279 2.7087302 374
-33.91024 2.3504615 2.7749705 222
-33.766197 2.3974676 2.783206 344
-82.531281 2.4443426 2.746722 213
-81.474159 2.4860697 2.6053128 341
-81.272614 2.4088669 2.7176728 283
-72.307648 2.4532251 2.7354476 119
-48.338257 2.4185648 2.7815714 448
-47.972885 2.4351454 2.7290521 401
-41.461197 2.4574521 2.7131155 707.66669
-41.079273 2.5289383 2.7204914 544.33331
-40.886574 2.4893761 2.666914 582
-39.716484 2.4140432 2.6208177 511.5
-38.85976 2.4495192 2.7096989 410
-37.836609 2.4203243 2.7255552 630
-37.63678 2.4770997 2.6908751 503.5
-37.38121 2.5021248 2.6838026 694
-36.510628 2.4473534 2.6588612 648
-35.825935 2.5769281 2.763196 552
-35.635765 2.4673419 2.6608887 495.5
-35.411781 2.5075002 2.746742 563
-35.263733 2.4148216 2.6863093 148
-34.650528 2.427505 2.6666613 445.5
-34.518257 2.4988289 2.6322732 493.75
-34.299099 2.4534347 2.6841972 429.14285
-34.125832 2.484242 2.7085876 600.75
-33.802006 2.5282421 2.7569981 599
-33.731491 2.5314009 2.7440307 257.66666
-12.402718 2.5855229 2.7803154 237
-72.520386 2.6685331 2.6573002 167
-72.060616 2.6619198 2.7592697 270
-49.664093 2.6183891 2.6404686 533
-37.205399 2.6695161 2.7143157 391
-35.974499 2.6127024 2.7542405 458
-35.548241 2.6038442 2.7482882 462
-34.596348 2.6621337 2.734165 394
-34.30505 2.7408836 2.6537905 574
-33.943665 2.6602287 2.6914473 621
-33.678284 2.6530876 2.765028 536
-33.520058 2.6541276 2.7532678 349.5
-33.309418 2.7121382 2.7810209 449
-33.186852 2.6781635 2.7975667 746
-82.961021 2.9757004 2.6374588 348
-72.217377 2.9440203 2.7569013 313
-71.893883 2.89732 2.6820538 321
-71.792274 2.8379626 2.6489077 323
-71.231583 2.8273606 2.6093614 226
-71.130707 2.8977792 2.6794205 273
-70.982628 2.8605566 2.7706494 154
-70.18837 2.9436851 2.6406436 247
-69.872467 2.9849644 2.6915159 310
-69.701225 2.9989572 2.6680031 261
-47.54895 2.8890066 2.6846883 147
-47.297298 2.8562775 2.6166818 575.33331
-36.828125 2.9892936 2.7959189 606
-34.433361 2.8694983 2.6785161 516
-34.195217 2.9651155 2.7104928 705
-33.716705 2.8778429 2.7606697 665
-33.480217 2.8769789 2.7613349 521.5
-71.862 3.1010199 2.6342185 500
-70.617661 3.0398941 2.7677975 540
-70.314369 3.0858002 2.632004 391.33334
-70.097252 3.0098577 2.6647067 320
-69.699165 3.0910296 2.7096565 394.25
-69.598091 3.0960331 2.7638755 447
-34.634857 3.0399218 2.6251316 200
-34.535179 3.0977259 2.7110772 380
-34.144093 3.0123568 2.7988105 643
-33.85865 3.0333412 2.6682882 482.5
-33.744507 3.0899572 2.7331054 733
-33.267696 3.0363724 2.7643194 519.5
-12.187622 3.0188208 2.6536107 304
-11.878592 3.0215592 2.6764696 560
-69.281677 3.327821 2.7661932 435
-34.509495 3.2537231 2.6486528 468
-34.311829 3.2208495 2.7910635 594
-34.122955 3.2742016 2.662039 405
-33.917393 3.2920635 2.6583788 604
-33.174305 3.3912699 2.7967958 264
-69.286324 3.4297004 2.738723 465
-69.130157 3.5887833 2.7757339 436
-61.785564 3.5470314 2.7700849 322
-45.075287 3.5601602 2.7321389 479.5
-44.630432 3.5678899 2.7510178 517.5
-44.532852 3.5827231 2.7579994 522
-34.282745 3.581264 2.6436298 491
-33.465332 3.4603279 2.7706637 579.79999
-33.368469 3.5256534 2.7940156 661
-18.677492 3.5871632 2.6364126 410
-18.536491 3.5329282 2.6708789 465
-12.292683 3.5116923 2.7450521 364
-69.683052 3.705143 2.6054726 347
-69.157265 3.7679944 2.6512244 410
-62.071613 3.6686792 2.6604731 413
-61.845695 3.6126165 2.7365785 555.5
-44.949902 3.6298175 2.7397938 435.5
-44.687939 3.7226479 2.6652818 465
-44.482197 3.6932147 2.7368309 533
-44.332092 3.7795818 2.7047429 636.5
-34.07058 3.7905536 2.6798842 662.5
-33.855396 3.7162752 2.7215812 590.33331
-81.268471 3.9210725 2.7849579 126
-69.757973 3.8963161 2.6549573 262
-69.394798 3.9407315 2.6092682 78
-50.806232 3.9765229 2.7709842 281
-50.071178 3.8944197 2.6854668 393
-45.597382 3.8859634 2.622478 345
-44.838089 3.8883371 2.772393 515
-44.617088 3.8217235 2.6172984 277
-44.213181 3.9427896 2.6241231 478
-44.106472 3.9131749 2.7221231 578.66669
-33.62764 3.9590585 2.656364 333
-33.372559 3.9018416 2.7289093 339.5
-50.905998 4.1230402 2.6653714 518
-50.480083 4.0841904 2.7171459 61
-50.161739 4.1282816 2.616436 568
-45.600819 4.0222373 2.6157222 457
-44.788517 4.0910544 2.6170125 260
-44.141514 4.0090971 2.6505339 391
-43.904915 4.0979114 2.7333312 506.875
-33.877785 4.1946387 2.6768084 547
-33.728149 4.1418843 2.7884369 644
-33.541256 4.1152835 2.7538123 599
-33.354034 4.1219506 2.7060847 408.75
-15.993757 4.1234503 2.6426289 55
-76.3032 4.2206502 2.7133386 267
-75.525383 4.2674198 2.6299806 147.5
-51.023853 4.2476864 2.6655409 469.66666
-50.941048 4.2376738 2.6710775 468
-50.042667 4.2073064 2.609983 495
-46.310139 4.3475399 2.713119 245
-44.575253 4.2243757 2.754777 523
-43.893707 4.3082314 2.7167268 473.5
-83.531136 4.4651699 2.6087534 83
-75.955688 4.4709959 2.7940562 312
-75.789719 4.4516363 2.6947198 85
-66.451889 4.524157 2.6824193 313
-46.226437 4.5034533 2.7062922 441
-45.093483 4.5231495 2.7220011 408
-44.932365 4.4661169 2.7037277 486
-43.981544 4.5926485 2.6393032 390
-43.914284 4.6157036 2.629241 479
-42.608353 4.757092 2.7075911 257
-42.755516 4.807127 2.7471421 379
-42.585167 4.8824821 2.7333207 358
-32.940468 4.9821787 2.660172 473
-19.983459 4.858779 2.6390126 468
-13.72908 4.988801 2.6684904 412
-48.112564 5.1854048 2.6086841 461
-42.528091 5.1084738 2.6951978 293
-33.361916 5.1790762 2.6381612 571
-32.67498 5.1771641 2.7235098 393
-32.498798 5.132165 2.7349603 488
-15.231007 5.0835767 2.6028314 356
-15.018812 5.0921879 2.6445813 606
-48.034454 5.2832856 2.6989498 443
-41.834206 5.362431 2.6125171 351
-32.710835 5.2050209 2.7695711 652
-32.338905 5.2113605 2.6736486 486
-59.454765 5.5258217 2.6921606 389
-59.29446 5.5609784 2.7166815 259
-42.437054 5.5653896 2.6106164 162
-41.806381 5.4967165 2.7045054 183
-68.288727 5.7787218 2.7537031 222.25
-67.843079 5.7777357 2.7719269 312.5
-67.724091 5.7921772 2.7495365 218
-59.480194 5.6522131 2.660078 134
-51.647865 5.7621179 2.6585293 386
-42.498566 5.7011676 2.6677275 302
-17.849966 5.7606249 2.6447451 630
-15.085787 5.6211452 2.7539139 593
-13.810876 5.7061825 2.6479859 621
-12.591686 5.6082754 2.6183467 367
-52.112717 5.9271402 2.7551761 376
-51.308468 5.8046336 2.66592 245
-46.519135 5.9316192 2.6020827 29
-17.925886 5.9905562 2.6767843 352
-55.35054 6.1246958 2.6118257 69
-50.927086 6.1196036 2.6747673 351
-18.282448 6.1561451 2.6711528 757
-14.740227 6.1010475 2.6001015 578
-55.096352 6.3969493 2.7435341 256
-54.609066 6.3908806 2.6908903 395
-54.10041 6.2849174 2.6700683 317.42856
-53.945274 6.2615795 2.6471012 375
-68.639732 6.4730749 2.6079173 259
-54.715546 6.4710293 2.6357212 386
-54.279961 6.5553384 2.6845307 423
-52.13649 6.491015 2.6838183 466
-66.743439 6.6800733 2.6503987 249
-66.558617 6.7839904 2.7095337 207
-54.648758 6.6168308 2.6316354 441
-54.227123 6.6574235 2.7593532 370
-52.238415 6.7134042 2.7173185 308
-52.145294 6.6678429 2.6138442 423
-48.8041 6.7880864 2.6696277 415
-33.038818 6.628469 2.7717855 281
-67.024796 6.8098674 2.6296644 262
-66.8246 6.9245024 2.761508 328
-57.41906 6.9846454 2.6150765 253
-54.902454 6.9478397 2.6161871 200
-54.114468 6.8457985 2.6564915 452
-52.054916 6.9163594 2.6353846 345.5
-51.951366 6.8768015 2.666522 477
-51.502918 6.9484172 2.6484203 347
-32.068802 6.8968172 2.7340765 243
-66.280022 7.1679449 2.748826 226
-64.353233 7.1254058 2.630547 250
-57.3367 7.1719084 2.6871915 180
-51.874645 7.0768614 2.6665821 500
-32.210457 7.028657 2.7355494 465
-66.25106 7.23774 2.6569486 239
-64.752678 7.3551426 2.6053064 192
-59.315926 7.3166203 2.6381035 181.5
-57.197659 7.3181605 2.7293262 133
-54.156418 7.2247195 2.6401892 165
-53.362991 7.3837051 2.7517796 256
-53.194805 7.2142358 2.7916729 342
-6.682478 7.3168998 2.6048295 333
-4.8783445 7.359642 2.6488264 124
-64.656937 7.4761996 2.6180809 254
-62.957195 7.4512763 2.7030103 221
-62.645798 7.4606862 2.6023653 204
-57.51918 7.4853654 2.6977606 231
-57.03064 7.4029212 2.7718387 177
-56.830662 7.4508991 2.6827531 175
-54.592804 7.5829678 2.6784568 226
-53.486198 7.597403 2.7585897 296
-6.9479761 7.4302306 2.6397233 486
-62.805351 7.7665172 2.6798775 135
-53.037022 7.6522431 2.6656935 200
-20.98398 7.6657019 2.7979832 627
-6.9673939 7.6188579 2.6817596 437
-58.293388 7.9743657 2.6483679 187.5
-20.73951 7.9392371 2.7812874 503
-12.309469 7.8778472 2.6374512 133
-58.589657 8.0507374 2.7182484 210
-20.826214 8.0425615 2.7952585 474
-20.41151 8.0017128 2.7132049 381
-33.207619 8.303544 2.6926284 186
-32.944698 8.2629223 2.7750747 146
-20.874949 8.4215555 2.7877591 307
-20.720715 8.4790392 2.7461505 181
-20.585329 8.5795097 2.7168343 337
-52.587093 8.6844997 2.6230073 258
-52.225143 8.7229271 2.640573 198
-55.647053 9.0395298 2.6288142 187
-32.87606 9.3449936 2.7450986 278
-15.413506 9.318058 2.7840481 349
-32.740181 9.6086292 2.7732763 93
-112.68559 12.909638 2.680969 30
-69.073471 14.677939 2.7727616 124
-69.255188 20.127254 2.7050037 75
-69.123131 20.403608 2.6753588 62
-134.36259 20.980545 2.6077495 79
-105.34929 23.232201 2.6979985 103
-104.4193 23.442331 2.6780691 85
-104.33723 23.483669 2.6238871 42
-104.42332 23.649921 2.7542229 74
14.173474 33.172836 2.6625519 84
-8.4266796 33.36129 2.6944134 54
-46.850571 33.541412 2.6031783 42
-46.424393 33.500916 2.7646012 42
-46.396774 33.519867 2.6149976 56
-44.259281 33.500504 2.6693449 61
-44.085144 33.556534 2.6788774 59
-35.610378 33.576118 2.7350652 69
-26.790199 33.558498 2.701921 15
-26.499758 33.496922 2.7724328 88
-26.352139 33.561512 2.6718009 106
-17.670702 33.507175 2.7337272 80
-17.544903 33.493095 2.6809297 92
-8.6590843 33.512009 2.6393807 48
-46.47921 33.747849 2.6139472 46
-35.638824 33.628769 2.7303257 55.5
-35.488605 33.629822 2.6830297 72.5
-35.349739 33.63504 2.6301167 102
-26.702061 33.615646 2.6385772 36
-26.483971 33.613605 2.7403812 82.333336
-26.202753 33.828671 2.7012286 31
-19.008112 36.500702 2.6912272 84
-18.572039 36.565903 2.6853404 49
-12.554453 36.506798 2.6493974 32
-38.651596 36.741901 2.7666585 66
-32.356113 36.625664 2.7731333 81
-32.163872 36.601143 2.6645434 55
-13.553458 36.659538 2.7653019 58
-30.622391 36.90844 2.7816272 58
-30.5182 36.897339 2.6664512 32
-31.638008 37.033791 2.7622526 36
-41.415356 40.022064 2.6786029 115
-59.427681 -109.38902 2.8127029 15
-4.8171587 -101.94495 2.9295464 29
-3.5910854 -101.27386 2.8622105 15
-3.3973169 -101.22912 2.9209905 21
-154.77019 -72.34919 2.9944253 230
-153.80769 -72.255775 2.9521055 276
-152.55792 -72.266869 2.9594979 129
-163.45927 -71.75592 2.9863815 166
-162.99907 -71.630547 2.9671793 207
-153.35968 -71.769058 2.949985 209
-153.0737 -71.640579 2.9229312 344
-163.28015 -71.402306 2.9633994 55
-162.91202 -71.560196 2.9490917 82
-162.65128 -71.498611 2.9394653 197
-162.29396 -71.430031 2.9359174 107
-152.37782 -71.491211 2.9100885 267
-151.19539 -71.545082 2.9126701 185
-161.99812 -71.377548 2.9494867 118
-161.34004 -71.215828 2.9088082 174
-151.71191 -71.359688 2.837616 278
-151.58846 -71.36702 2.8867631 287
-151.3692 -71.233177 2.9250994 224
-150.48549 -71.207497 2.838398 311
-161.52339 -71.161209 2.8915377 164
-161.3949 -71.152206 2.8992257 94
-160.65158 -71.030952 2.9134557 124
-154.9061 -71.146965 2.9523382 114
-151.248 -71.097321 2.89679 160
-151.06891 -71.059891 2.8783488 255.5
-150.96736 -71.068199 2.9681873 215
-150.64465 -71.014587 2.9310293 351
-150.27168 -71.125992 2.8157604 276
-150.05029 -71.004303 2.8552303 247
-160.26485 -70.871544 2.85358 285
-159.60294 -70.697517 2.8353896 106
-159.52235 -70.652428 2.832449 183
-156.01428 -70.65123 2.9672308 173
-150.09021 -70.667397 2.8725138 273
-149.0798 -70.625633 2.8719606 214
-162.85384 -70.406509 2.9693921 79
-162.09915 -70.52063 2.9011626 42
-159.15245 -70.539803 2.8239431 226
-158.91931 -70.401237 2.8239079 73
-155.89687 -70.402977 2.9410295 245
-154.57184 -70.456764 2.9329286 209
-149.62209 -70.577087 2.9503763 228
-149.55852 -70.499924 2.8982029 155
-160.81851 -70.284096 2.91362 71.5
-158.33496 -70.305023 2.9999804 89
-151.07565 -70.352531 2.8250008 38
-148.82512 -70.335144 2.8901296 155
-148.51602 -70.256416 2.8924708 106
-160.19849 -70.055901 2.8499181 124
-157.6393 -70.132347 2.9908111 35
-157.54222 -70.085381 2.9740982 78
-157.37634 -70.06353 2.9572163 52
-155.7249 -70.034096 2.9900579 361
-154.93048 -70.0569 2.9879358 314.5
-154.52759 -70.100639 2.9089417 218
-148.80768 -70.167831 2.9756317 172
-163.532 -69.941132 2.9999609 35
-160.29912 -69.908318 2.8471038 49
-154.9404 -69.816284 2.9685888 338
-147.81168 -69.927513 2.8713603 169
-147.64694 -69.941124 2.9720776 53
-147.0186 -69.854095 2.9309354 59
-156.31453 -69.699615 2.9289742 86.666664
-155.02847 -69.718124 2.9653993 172
-154.93176 -69.706978 2.9314053 280
-152.6474 -69.784378 2.8453913 184
-147.74826 -69.774307 2.880084 148
-156.0556 -69.576447 2.9023495 82.5
-153.04128 -69.502838 2.8787944 192
-152.94044 -69.503296 2.9031572 215
-147.12367 -69.508865 2.9121094 158
-146.92839 -69.526146 2.8928819 119
-155.0829 -69.238708 2.8711555 128
-154.35014 -69.284859 2.8692019 221
-153.23853 -69.23275 2.9441471 60.5
-153.09033 -69.304756 2.9590681 208
-151.65898 -69.351387 2.8257391 106
-146.46249 -69.348923 2.9175649 77
-146.30986 -69.206131 2.9771273 62
-159.89827 -69.01046 2.8697369 143
-154.46661 -69.032249 2.8435678 122
-153.07375 -69.090454 2.88429 330
-152.8772 -69.090828 2.8561001 126
-151.73669 -69.094009 2.8118141 163
-145.92035 -69.080017 2.8987958 95.5
-163.20891 -68.820381 2.9779305 117
-154.23532 -68.969391 2.850018 74
-154.12738 -68.947456 2.9190671 72
-153.98439 -68.883026 2.8108392 115
-153.09943 -68.917641 2.8667662 156.66667
-151.53711 -68.888062 2.8049216 245
-145.68155 -68.857559 2.8619823 79
-160.80881 -68.654648 2.9690392 93
-153.80084 -68.784424 2.8198462 204
-152.93575 -68.779404 2.8886397 142
-145.30247 -68.795837 2.9172492 42
-145.06329 -68.643265 2.8094983 93
-144.4765 -68.7005 2.9748006 58
-153.00818 -68.543251 2.8365345 29
-152.80753 -68.452141 2.8151686 45
-152.76961 -68.453598 2.8095152 31
-145.21106 -68.59623 2.9660659 43
-144.89037 -68.47464 2.8931289 41
-144.20964 -68.4804 2.9649796 57
-143.9977 -68.416138 2.9300127 56
-144.61551 -68.363998 2.8103423 48
-143.88045 -68.224915 2.8978975 50
-161.28609 -68.173866 2.9399347 53
-158.23141 -68.137878 2.8341947 62
-157.28511 -68.128754 2.8671579 42
-150.88185 -68.026543 2.8780706 84
-150.71095 -68.056244 2.9231935 235.75
-150.57487 -68.076485 2.9292738 72.333336
-143.84663 -68.016281 2.9213452 44
-143.64961 -68.145149 2.9811628 42
-162.82498 -67.963036 2.9795585 59
-150.82811 -67.993919 2.8308058 98
-150.70358 -67.977562 2.8614535 127.2
-143.76186 -67.837891 2.897265 37
-143.51366 -67.855453 2.8445954 32
-143.1855 -67.865479 2.9109054 48
-159.64401 -67.65683 2.8447549 66
-156.75063 -67.793358 2.8301575 32
-143.28513 -67.765121 2.9944603 39
-159.90623 -67.551376 2.8847392 53
-148.41472 -67.459671 2.8761306 168.5
-142.35101 -67.422462 2.9490719 35
-162.97156 -67.386017 2.997318 143
-160.91771 -67.384697 2.9888399 49
-157.82619 -67.23941 2.8738258 50
-142.62328 -67.377365 2.9707537 38.5
-142.30759 -67.249878 2.9296188 35
-157.23483 -67.025986 2.8360775 40
-148.54428 -67.089531 2.89574 357.81818
-142.11775 -67.092819 2.9658651 46
-141.73668 -67.125984 2.9541922 36
-161.28792 -66.890144 2.9766862 52
-141.48639 -66.853783 2.8940368 51
-141.13089 -66.890068 2.9008594 48
-141.48276 -66.743362 2.9779282 37
-141.23708 -66.669922 2.9201965 35
-141.18413 -66.722023 2.8609314 48
-158.67854 -66.520134 2.8702669 100
-146.11752 -66.419693 2.9541755 273.5
-145.95958 -66.436195 2.8254805 200
-141.10252 -66.525009 2.8424463 33
-140.89247 -66.509926 2.9995828 19
-160.36072 -66.290344 2.9350009 111
-157.79642 -66.365784 2.8244579 69
-146.0311 -66.363586 2.9054103 286.42856
-145.97894 -66.378967 2.8991334 255
-140.47209 -66.329575 2.915235 35.5
-140.04001 -66.306084 2.9463956 44
-139.92236 -66.222275 2.8797317 30
-157.54709 -66.15329 2.8032053 162
-140.02957 -66.008957 2.8828068 38
-139.9231 -66.097885 2.8458323 46.5
-139.79483 -66.011093 2.9171324 46
-161.69691 -65.804604 2.9893451 65
-139.94783 -65.978455 2.9893727 37
-139.71143 -65.959114 2.8298502 246
-139.23097 -65.86145 2.824039 37
-158.03844 -65.757614 2.8998363 56
-157.38356 -65.639305 2.8625896 43
-139.30817 -65.787849 2.9732294 35
-139.04393 -65.795822 2.9931197 29
-160.4787 -65.478134 2.9208245 49
-157.81723 -65.427414 2.8208961 67
-156.50902 -65.472305 2.8050032 39
-138.85159 -65.460663 2.8439665 210
-138.70096 -65.498344 2.8345864 384
-138.54727 -65.541046 2.9169519 41
-159.50398 -65.34166 2.8917902 110
-138.42584 -65.372215 2.864249 45
-159.24301 -65.096954 2.8895268 59
-161.76512 -64.805939 2.984704 81
-158.40257 -64.943993 2.8439975 44
-158.29269 -64.873749 2.8184905 46
-137.90649 -64.945305 2.9813044 27
-137.50719 -64.940781 2.96808 40
-137.29721 -64.704842 2.9445462 51
-137.06618 -64.629211 2.9879162 39
-160.54146 -64.548943 2.9184401 70
-136.95816 -64.459015 2.8942063 116
-136.62369 -64.229607 2.970773 22
-136.22708 -64.208748 2.8716395 72
-161.13751 -64.006866 2.9522355 258
-136.58545 -64.181755 2.9048169 36
-136.0946 -64.006668 2.9395571 16
-135.97462 -64.135139 2.9033394 45
-161.94569 -63.816551 2.9915402 348
-158.56963 -63.818016 2.8424823 55
-136.17639 -63.966022 2.8682945 46
-135.81435 -63.872902 2.8051233 23
-135.75374 -63.994728 2.8815649 30
-135.58849 -63.885643 2.8314071 29
-162.19717 -63.697414 2.9794919 170
-161.79253 -63.632111 2.9744844 174
-135.75771 -63.740143 2.8399444 29
-135.53543 -63.709164 2.9476228 71.5
-160.69844 -63.415585 2.9211397 298
-159.60669 -63.570286 2.8910198 249
-135.14272 -63.581966 2.8955185 348
-134.59608 -63.45499 2.9109094 161
-161.30025 -63.254036 2.947052 177
-158.36647 -63.246227 2.8239713 100
-160.62834 -63.148003 2.9519024 171
-159.43517 -63.062428 2.8621421 306
-133.94524 -63.072052 2.9552922 41
-134.06741 -62.874809 2.9275498 46
-159.89401 -62.672432 2.8951716 161
-159.64771 -62.642788 2.8966999 153
-159.41003 -62.741734 2.8688478 173
-157.95531 -62.609005 2.8016887 344
-133.83121 -62.730701 2.8639469 44
-133.65253 -62.644932 2.9438889 44
-133.45009 -62.612473 2.9440331 113
-132.95621 -62.442017 2.8518538 36.5
-158.86304 -62.24279 2.8605142 174
-158.08582 -62.325386 2.8190908 134
-137.91719 -62.284973 2.9382904 284.33334
-132.98964 -62.391148 2.9594646 52
-160.81905 -61.998714 2.9240589 129
-131.84393 -61.758442 2.8934355 40
-131.64096 -61.671638 2.8578804 379
-131.49513 -61.625439 2.8889322 40.5
-131.38602 -61.465118 2.8314261 64
-160.52789 -61.391171 2.9406407 374
-131.22569 -61.319378 2.9023688 39
-131.0752 -61.281231 2.8871593 52
-159.61876 -61.002289 2.8694429 155
-160.18317 -60.953537 2.9424047 260
-161.47635 -60.759392 2.9282684 434
-130.17389 -60.751244 2.9242456 67
-129.90776 -60.649063 2.929821 280
-129.7963 -60.616924 2.8540096 104
-129.66107 -60.569473 2.8066466 44
-129.45619 -60.48695 2.8216605 24
-159.15161 -60.247383 2.8438506 283
-129.5186 -60.246368 2.9899929 21
-129.25133 -60.150635 2.9778924 37
-162.19452 -59.911304 2.9293115 285
-128.48486 -59.7416 2.8340721 21
-128.36366 -59.694366 2.8549802 34.5
-128.08006 -59.649647 2.8565898 132
-160.91415 -59.588833 2.8961053 262
-128.38071 -59.58271 2.9476957 27
-127.95879 -59.42083 2.8249741 24
-162.1579 -59.222515 2.9013319 230
-161.98724 -59.372253 2.9288695 200
-159.65039 -59.256699 2.8642802 64
-127.62452 -59.399452 2.9003401 38
-161.53706 -59.028854 2.9046125 284
-152.70412 -59.191441 2.9872222 535
-151.99353 -59.012543 2.8959117 439
-158.6828 -58.810791 2.8690102 154
-126.70256 -58.821602 2.9817696 61
-151.30528 -58.704762 2.8213639 387
-160.43593 -58.475037 2.9656701 76
-150.57298 -58.424026 2.9537826 1614
-125.81371 -58.454327 2.9132147 153
-125.66055 -58.506653 2.9173739 166
-125.49095 -58.530643 2.9718769 226
-125.37016 -58.470558 2.9014635 155
-159.87465 -58.224525 2.9400318 97.5
-125.65536 -58.22287 2.9990435 96
-125.30477 -58.290123 2.94451 101
-124.93591 -58.219833 2.8145876 158
-160.21147 -58.197723 2.997658 109
-159.82224 -58.19936 2.8730836 53
-159.78372 -58.198055 2.9117455 83
-149.82645 -58.178879 2.9392185 424.5
-125.11942 -58.18589 2.9396782 187.5
-124.83765 -58.129906 2.9770174 206.5
-130.05266 -57.907906 2.8729892 128.8
-129.95758 -57.896076 2.8734784 219.75
-124.40083 -57.825996 2.8358192 204
-124.27765 -57.806984 2.9067831 245
-165.53746 -57.708744 2.9367304 229
-148.64272 -57.705055 2.904876 101
-125.0243 -57.756599 2.8424337 166
-124.91801 -57.74395 2.8675158 204.5
-124.66971 -57.652863 2.8649373 230.75
-124.55984 -57.675789 2.9118779 291
-124.34416 -57.696167 2.8833418 235.5
-153.32352 -57.495693 2.9879558 319
-124.6452 -57.582024 2.9478488 157
-124.45383 -57.478348 2.9649358 82
-124.20073 -57.444672 2.8823183 106
-124.17118 -57.592186 2.8848164 144
-152.62944 -57.261185 2.9010372 436
-148.94406 -57.348145 2.8994541 896
-147.91785 -57.334732 2.8607504 398
-124.16919 -57.22229 2.8853054 17
-157.18857 -57.162563 2.9804926 670
-156.75284 -57.03714 2.9193175 116.33334
-123.39706 -57.05872 2.9388964 123
-156.73193 -56.824154 2.9450746 342
-156.22005 -56.854267 2.8585458 128
-156.12888 -56.828247 2.9194703 79
-151.91559 -56.949726 2.8328562 78
-123.43617 -56.917969 2.8949423 110.5
-123.35786 -56.845364 2.8984435 48.5
-123.07523 -56.873444 2.8501446 68
-156.69281 -56.789879 2.8393106 327
-156.06978 -56.642212 2.8095493 140
-155.63936 -56.604637 2.9608984 509
-151.2467 -56.769436 2.9586692 1858
-123.20216 -56.76725 2.8998194 285
-123.15813 -56.726555 2.9069133 137.5
-122.6339 -56.761299 2.9045329 123
-156.11075 -56.566742 2.8015461 79
-155.20227 -56.47163 2.9789331 105
-122.6225 -56.537308 2.935051 118
-150.54109 -56.356403 2.855834 87
-146.03133 -56.382015 2.9841011 521
-122.45291 -56.258484 2.8485017 171
-122.44732 -56.101776 2.8384249 248.66667
-122.31241 -56.098797 2.8561325 224.75
-122.19316 -56.026527 2.8877475 270
-121.74554 -56.089996 2.9098597 258
-155.41891 -55.906635 2.8934636 113
-149.43452 -55.910427 2.9118962 340
-145.28676 -55.950787 2.9420061 561
-121.48868 -55.91494 2.9287739 264
-121.80797 -55.734901 2.8132446 258
-121.7898 -55.767162 2.8563409 318
-155.13745 -55.515789 2.9905009 770
-151.7032 -55.405655 2.9098008 246
-151.54749 -55.418438 2.936826 108
-148.73743 -55.572353 2.8681028 152
-144.53091 -55.486294 2.8759947 568
-121.47678 -55.550877 2.8506365 297
-121.27503 -55.425865 2.8065634 244
-120.93349 -55.43829 2.9820585 338
-151.48349 -55.351036 2.8271058 167.5
-151.22316 -55.24556 2.997921 125
-121.48485 -55.385429 2.8192987 274
-121.34341 -55.36948 2.8469486 251.33333
-155.30815 -55.036316 2.9399655 193.66667
-151.14532 -55.097572 2.9515214 120
-150.87759 -55.096886 2.9389277 164.5
-147.5988 -55.023415 2.8079636 142
-143.75516 -55.005222 2.816889 558
-125.8514 -55.174839 2.9194889 226
-121.1494 -55.155846 2.9123492 262
-120.90151 -55.081787 2.9212611 290.5
-120.31517 -55.087723 2.9242504 292.5
-120.70645 -54.946449 2.8380976 226
-120.58002 -54.89753 2.8392358 159
-120.11944 -54.869858 2.942975 250
-155.44675 -54.630829 2.9774628 274
-150.1732 -54.787609 2.9190474 272
-146.90137 -54.676315 2.9928741 135
-119.56091 -54.620087 2.8404961 211
-120.08476 -54.468895 2.9762363 278
-119.93718 -54.541824 2.8554327 248
-119.49001 -54.503307 2.9398508 247.5
-146.24481 -54.329575 2.9506881 85
-148.68993 -54.090336 2.8760552 442.5
-148.52426 -54.012978 2.9434612 416
-142.25385 -54.050808 2.9700806 552
-148.69876 -53.904896 2.8350077 119.5
-148.1022 -53.835953 2.9629009 330.5
-147.98941 -53.80283 2.9061017 253
-145.34264 -53.925461 2.8885057 482
-119.03842 -53.92223 2.8591897 263.5
-118.44821 -53.897816 2.8345249 242
-148.02971 -53.799381 2.9028058 273
-147.92899 -53.758663 2.9035537 351.125
-147.73608 -53.675354 2.9233296 283
-144.57803 -53.508026 2.8290939 447
-147.66429 -53.328556 2.997488 1271
-118.49396 -53.272392 2.897965 272.79999
-118.27972 -53.316944 2.859755 260.5
-117.84808 -53.368645 2.8653283 175
-117.72075 -53.305912 2.8298831 317
-118.53342 -53.19067 2.9466832 291.33334
-118.19541 -53.188881 2.8426244 222
-117.62417 -53.107368 2.8749299 199
-117.47833 -53.163475 2.8206182 223
-146.42221 -52.871555 2.9627738 312.20834
-146.34438 -52.841839 2.8592007 209.16667
-121.22093 -52.82251 2.9590487 292
-121.15813 -52.804832 2.9172819 203
-118.26215 -52.965836 2.9413681 297
-118.11575 -52.90078 2.9972219 147
-146.22081 -52.761909 2.8864942 156
-146.12593 -52.669319 2.8426366 440
-143.08211 -52.679512 2.981509 1188
-121.22494 -52.761871 2.8784163 139.66667
-121.11873 -52.760918 2.9009459 210.14285
-117.4975 -52.607155 2.8836505 295
-117.09629 -52.677399 2.9220667 287
-145.89386 -52.532463 2.8618875 377.5
-117.53169 -52.50956 2.9221039 296.5
-117.36069 -52.561726 2.8875322 246.5
-117.10106 -52.40918 2.8247705 279.5
-116.63049 -52.449188 2.841114 237
-116.58921 -52.577404 2.9741223 206
-145.64584 -52.306492 2.8413651 155.75
-145.49547 -52.282654 2.9093914 275.57144
-142.30693 -52.206703 2.9608684 142
-117.1571 -52.366531 2.8361475 275
-116.71265 -52.295166 2.8711655 250
-116.49988 -52.322433 2.8232543 268
-116.30563 -52.302589 2.8097486 198
-145.3033 -52.144608 2.8364503 407
-145.17081 -52.08662 2.8574655 169
-116.79247 -52.195827 2.8992505 353
-148.13879 -51.928391 2.8914757 661
-116.35643 -51.930801 2.8617961 286
-115.87946 -51.885651 2.898443 161.33333
-116.14276 -51.662689 2.819483 302.33334
-115.53413 -51.655106 2.9322097 214
-157.99298 -51.460018 2.9692569 403
-141.12454 -51.505501 2.9130039 292
-115.75941 -51.440468 2.9362891 201
-156.54201 -51.21735 2.9648609 737
-143.8922 -51.243916 2.9165878 186
-115.61473 -51.204891 2.8718803 292
-115.52946 -51.218132 2.86971 276.39999
-156.30855 -51.151661 2.8522067 284
-115.63298 -51.16666 2.8780828 269
-115.48578 -51.135098 2.8645966 237.57143
-115.30035 -51.006775 2.9731586 302
-115.10624 -51.160301 2.8955479 360
-155.80322 -50.918102 2.9469261 553
-143.32808 -50.814911 2.9987855 94
-115.08343 -50.918728 2.9732807 140
-155.07005 -50.667976 2.9441462 95
-140.00662 -50.756657 2.8401089 1996
-114.26881 -50.605618 2.8454473 164
-155.29752 -50.49044 2.8750539 339
-114.45186 -50.47612 2.9775558 41
-113.98137 -50.517166 2.8343689 259
-142.50435 -50.241207 2.9328508 82
-138.3661 -50.39595 2.8560891 1995
-114.14144 -50.306377 2.8492994 259.33334
-113.84895 -50.256165 2.9975836 283
-113.78893 -50.249531 2.8529253 166
-138.85449 -50.072365 2.8512659 105
-113.93698 -50.129471 2.8752909 299.5
-113.60917 -50.152996 2.811101 241
-113.39183 -50.064857 2.8430636 154
-153.32002 -49.940193 2.9398515 58
-135.47398 -49.993507 2.9830883 48
-113.9568 -49.860687 2.9689181 306
-113.28004 -49.922523 2.8246346 128
-152.99721 -49.793041 2.9674253 363
-113.32928 -49.641785 2.8636856 323.5
-113.40081 -49.590374 2.8749278 169
-141.23473 -49.355736 2.8607206 55
-141.0551 -49.367786 2.9209325 302.66666
-140.94519 -49.25013 2.8614578 183
-137.65665 -49.236641 2.8063679 180
-113.53961 -49.356819 2.9828544 386.5
-113.10774 -49.309486 2.825922 180.5
-112.90139 -49.224766 2.8710759 199.33333
-140.87204 -49.12249 2.8428569 21
-134.25044 -49.062004 2.9552991 41
-113.01504 -49.061928 2.8426192 324
-112.90973 -49.140472 2.8584015 186.33333
-112.56105 -49.073242 2.9956431 222
-112.13345 -49.080307 2.9230762 291
-151.24564 -48.963974 2.9147906 102
-140.88972 -48.993244 2.9619799 120
-112.96689 -48.971848 2.8941224 279
-112.09132 -48.939934 2.9479809 204
-111.92847 -48.889931 2.8278961 269
-112.07967 -48.704689 2.9217083 179
-111.9218 -48.767834 2.8298502 139.5
-141.30141 -48.489822 2.9674137 106
-141.16745 -48.509785 2.8044796 44
-136.4519 -48.458649 2.9921455 534
-111.47178 -48.304874 2.9747174 247.33333
-141.50232 -48.00219 2.8340163 72
-111.4599 -48.15691 2.8247736 232
-141.6127 -47.950699 2.9898086 462
-139.2227 -47.853504 2.8797638 140.33333
-139.1313 -47.939526 2.9249167 315.31818
-141.82176 -47.656181 2.9563477 351
-141.74428 -47.742123 2.861856 219.5
-138.92049 -47.760376 2.8782878 1675
-139.57013 -47.581223 2.8751974 53
-138.61884 -47.557041 2.9517643 257
-138.46524 -47.43676 2.9137459 187
-135.43297 -47.411507 2.9614818 130
-110.42206 -47.479233 2.8580961 255
-138.2309 -47.237061 2.8906851 194.25
-131.89809 -47.143654 2.8800192 20
-140.21889 -46.675926 2.9975717 264
-140.14275 -46.765057 2.9760308 406
-109.56413 -46.684433 2.8506031 134.5
-137.41653 -46.566826 2.8659122 239
-137.22762 -46.426773 2.8755739 131
-134.36215 -46.584053 2.9306929 215
-109.60071 -46.593643 2.8580351 43
-108.89986 -46.450104 2.9411719 190
-137.17805 -46.366409 2.968302 185
-108.99051 -46.233597 2.9804587 165
-108.62724 -46.311569 2.8740916 268
-108.56712 -46.285366 2.9519329 217
-155.57379 -46.025307 2.9447932 216
-130.85349 -46.164146 2.8406947 146
-112.71721 -46.006805 2.8177176 194
-108.67778 -46.119614 2.8451827 153
-136.63475 -45.891754 2.9538794 214.5
-112.66733 -45.934048 2.8647568 226.83333
-112.59111 -45.849022 2.9273036 280
-108.2454 -45.891609 2.8666813 226.75
-145.67621 -45.699036 2.8128343 477
-133.21542 -45.568699 2.8848715 161
-108.20861 -45.456215 2.8549373 210
-136.01494 -45.395065 2.9277227 288
-135.83969 -45.216076 2.9134519 252.5
-108.21909 -45.294579 2.9908276 272
-108.0104 -45.299015 2.8307495 252.33333
-107.80131 -45.241989 2.9942658 181
-107.56483 -45.320427 2.982132 254
-135.55246 -45.004536 2.9807034 186
-129.67621 -45.166054 2.8068309 46
-108.07289 -45.090733 2.9107413 234.25
-107.83798 -45.199287 2.9928465 173
-107.31828 -45.124439 2.9988353 242
-144.76736 -44.827229 2.9149857 112
-108.12392 -44.950821 2.9582338 223
-135.26497 -44.7164 2.9746881 47
-135.08922 -44.617348 2.9958041 36
-131.9425 -44.735558 2.847271 507
-107.4515 -44.657681 2.8210676 200.33333
-106.82878 -44.741806 2.9897683 206
-152.81053 -44.527466 2.9804323 71
-144.19504 -44.572781 2.9331803 176
-135.01654 -44.595394 2.9084516 269
-134.94547 -44.508453 2.8055298 175
-107.09162 -44.572155 2.869314 261.5
-106.61937 -44.479084 2.9786575 166
-134.81824 -44.367607 2.9780815 386
-106.8388 -44.329262 2.946403 238.25
-106.78189 -44.338715 2.9429846 215.5
-143.29408 -44.099945 2.8016567 781
-134.47388 -44.16156 2.9460104 70
-106.62236 -44.062592 2.842114 198
-106.5244 -44.004463 2.8655107 113
-105.95911 -44.155998 2.9233141 160
-134.27957 -43.92186 2.9221239 180.5
-134.1839 -43.817623 2.9162931 446
-128.68346 -43.924881 2.9898698 608
-151.39052 -43.760803 2.9488413 325
-134.16888 -43.790699 2.8882501 472
-133.91515 -43.636288 2.9316595 39
-130.88536 -43.70406 2.8124921 146
-105.62557 -43.72501 2.9697642 97
-134.06844 -43.41927 2.9290783 98
-133.96173 -43.560089 2.9581928 195.66667
-141.88901 -43.231041 2.9589884 329
-105.50597 -43.242012 2.9055865 172
-105.04979 -43.269695 2.9500761 228.5
-105.18172 -43.000645 2.8806601 156
-134.51874 -42.843643 2.9397914 119
-134.36287 -42.998459 2.8096275 46
-129.66527 -42.810833 2.9955761 605
-127.58543 -42.904739 2.953898 576
-105.02026 -42.945511 2.9181538 199
-104.9931 -42.916744 2.9988048 91
-132.70932 -42.678143 2.9258649 263.8125
-132.49809 -42.604229 2.9144325 110
-133.04762 -42.485012 2.8501072 20
-132.92825 -42.512039 2.9892426 30
-132.66579 -42.544765 2.9644885 56
-132.519 -42.539536 2.85818 339.5
-132.39241 -42.530846 2.9506853 83
-104.61903 -42.579266 2.9258566 105
-165.41266 -42.269176 2.9740024 63
-141.43759 -42.357288 2.8949375 253
-135.09616 -42.273552 2.8859437 221.83333
-133.08095 -42.282257 2.856463 56
-132.30287 -42.390339 2.8319371 257
-132.1312 -42.30368 2.9541187 74
-103.81726 -42.204834 2.8468463 228
-103.78886 -42.217476 2.9385405 219
-165.28694 -42.135399 2.9992366 45
-133.34352 -42.066711 2.9023652 266.25
-132.06773 -42.112522 2.9192615 215.25
-103.91489 -42.135349 2.9070671 189.33333
-131.82825 -41.872391 2.8354993 223
-133.67696 -41.658222 2.8953879 224.33333
-103.43771 -41.742687 2.9841146 105
-164.51112 -41.452393 2.9581392 43
-131.43726 -41.464043 2.9267859 172.5
-131.33652 -41.516609 2.9270258 84
-164.40442 -41.336082 2.9806263 18
-133.95251 -41.340508 2.8914373 282.33334
-131.2912 -41.380962 2.8833976 134
-131.08481 -41.2033 2.9557362 143
-103.13617 -41.290192 2.8939478 99.333336
-131.07599 -41.165981 2.9595263 341
-102.81584 -41.061043 2.9080415 124
-130.85695 -40.960754 2.8681557 246.66667
-130.6935 -40.826065 2.8144522 43
-102.72481 -40.929787 2.8561113 119
-130.7267 -40.772324 2.9835577 92
-130.56358 -40.782055 2.9003279 79
-130.91269 -40.534515 2.9781957 14
-130.42052 -40.509609 2.9349084 38
-130.36609 -40.49818 2.9868052 70
-130.12785 -40.29847 2.8840694 150.5
-124.85909 -40.299259 2.9276814 640
-132.35439 -40.044876 2.9189677 12
-131.02994 -40.158195 2.9849863 13
-129.99611 -40.116348 2.906533 221
-129.78201 -40.020103 2.8806429 59
-164.39638 -39.839531 2.9519987 89
-130.4648 -39.823429 2.9265816 23
-129.87685 -39.985363 2.9058909 326
-129.65836 -39.831455 2.9409175 70
-129.57056 -39.778866 2.8532808 581
-132.0298 -39.33902 2.950804 15
-131.93394 -39.216034 2.9221387 62
-131.74942 -39.239792 2.9093966 46
-129.07117 -39.261429 2.9103055 71
-131.05379 -39.179771 2.9406598 38.5
-130.12828 -39.161537 2.9569957 17
-128.95737 -39.108601 2.8827629 173.33333
-129.60262 -38.809784 2.9055376 17
-128.6319 -38.815029 2.9563217 162
-128.59749 -38.803989 2.9589028 87
-130.49562 -38.696655 2.9268444 27
-128.50253 -38.725246 2.9424667 155
-128.31808 -38.625465 2.8122952 68
-105.49897 -38.619106 2.8099504 165
-128.2534 -38.514977 2.9147608 487
-131.18492 -38.372917 2.8795435 18
-130.62552 -38.214928 2.8659413 19
-128.05592 -38.287445 2.8605394 391.66666
-127.9963 -38.241966 2.9732537 479.5
-105.97679 -38.232212 2.9427631 195
-130.08862 -38.151108 2.8784883 28.5
-127.85098 -38.064495 2.9020905 404.63333
-106.05007 -38.132469 2.9638028 29
-92.241608 -38.016968 2.8847945 127
-130.623 -37.817116 2.842977 22
-128.19017 -37.912067 2.9882321 16
-127.94673 -37.911427 2.8892565 260.5
-93.883331 -37.858025 2.9147165 189
-130.07898 -37.677551 2.9086111 36
-106.46464 -37.605434 2.9137101 14
-106.37512 -37.620327 2.8973312 300
-93.542191 -37.753128 2.8525319 151
-51.659248 -37.774731 2.8900981 49
-49.777908 -37.638496 2.9587288 57
-129.96828 -37.593033 2.8542686 24
-106.52126 -37.497025 2.8973982 134
-104.38023 -37.531113 2.9348309 20
-51.545525 -37.541145 2.8704371 85
-51.089569 -37.408306 2.8501692 107
-49.82132 -37.527962 2.8804541 72
-106.64232 -37.238373 2.905159 257.5
-106.56724 -37.235538 2.9366047 227.2
-50.226093 -37.394409 2.8670425 92
-128.72656 -37.13689 2.9606848 156
-126.31222 -37.062637 2.8919916 233.75
-126.09752 -37.103745 2.8247151 96
