# .PCD v0.7 - Point Cloud Data file format
VERSION 0.7
FIELDS x y z intensity
SIZE 4 4 4 4
TYPE F F F F
COUNT 1 1 1 1
WIDTH 499213
HEIGHT 1
VIEWPOINT 0 0 0 1 0 0 0
POINTS 499213
DATA ascii
4.3493414 -15.02758 -1.7952992 128
13.362923 -15.114224 -1.8382418 71
7.8871303 -13.941595 -1.8020327 22
9.5367661 -13.211615 -1.8164194 29
5.5095911 -4.8372235 -1.7769693 71
6.404603 -4.9501581 -1.8030108 46
4.8613539 -4.7572336 -1.7925211 151
6.7533622 -4.5276656 -1.8068197 25
5.6070032 -4.1728625 -1.8340718 92
6.1925988 -4.1628966 -1.8008338 20
12.233778 -16.942879 -1.5580369 61
0.63542569 -14.971131 -1.7547243 133
4.7169409 -12.465349 -1.7549361 35
5.5867877 -12.206515 -1.7587903 22
-8.4090843 -0.17918088 -1.6844206 131
-9.3439693 0.7157765 -1.6871266 127
-7.1943431 1.1419519 -1.7385347 86
-8.2992668 2.1660795 -1.7096152 263
-7.7051177 2.1677563 -1.7438076 311
-6.9381819 2.184119 -1.7311245 166
-6.4945307 2.1876199 -1.7621512 400
-5.9564795 2.1654763 -1.7610104 246
4.7861123 4.0381017 -1.627196 135
1.7553036 -17.89724 -1.4315729 169
4.5917568 -17.896036 -1.4431586 142
5.2950144 -17.876005 -1.4495803 135
4.2291312 -15.651024 -1.54717 109
13.11615 -15.604195 -1.5064393 166
-8.9470682 -15.548925 -1.5247873 82
-11.948024 -14.357737 -1.6086252 86
-12.625321 -13.241345 -1.5825775 46
-9.0307455 -12.651001 -1.6030245 78
16.200678 -11.877203 -1.4455931 35
-3.9048123 -5.5220957 -1.4646878 85
-3.6218758 -5.474 -1.5531822 200
-2.4013405 -5.4695849 -1.5205611 193
0.027389472 -5.4101529 -1.4685823 207
-3.2978642 -5.392251 -1.615642 145
-1.4922853 -5.3648782 -1.5265143 143
-14.329759 -3.0204189 -1.5460311 106
-15.038866 -1.4661623 -1.5939118 88
-14.903372 -0.3500329 -1.5707129 97
-12.895461 -0.29228339 -1.6111155 107
-11.380815 -0.2586939 -1.6239275 120
-9.0727797 2.1818063 -1.5048949 109
-7.2673573 2.1859169 -1.5112681 101
-6.6915851 2.197329 -1.5328721 174
-6.1492944 2.1881256 -1.5520858 162
-5.5897636 2.1944141 -1.542432 190
-5.2276382 2.1594841 -1.5701379 164
-8.060729 2.2045431 -1.4982495 69
-6.0647092 2.4135132 -1.5507869 231
-5.5516658 2.5735087 -1.4517539 211
-7.2299542 2.7703972 -1.5388001 218
-2.4379725 5.1650295 -1.4308444 600
0.33284065 5.4188161 -1.4448444 23
13.564789 -18.281424 -1.2572062 147
12.435125 -18.115891 -1.2207997 130
3.29475 -15.59468 -1.2516966 191
-17.014242 -14.495373 -1.5146797 60
-17.603197 -13.222601 -1.4976106 50
12.130128 -12.598686 -1.2823688 232
-17.774872 -12.03353 -1.4640369 56
-13.123488 -11.729988 -1.5296004 75
13.436871 -11.748919 -1.2962376 44
-18.645376 -9.5259285 -1.4355704 35
-18.970381 -8.544858 -1.4286855 55
-19.290855 -7.3011556 -1.4183447 57
-12.793712 -6.828352 -1.5262036 103
-3.9527054 -5.5211368 -1.3443455 59
-1.0991943 -5.4594593 -1.4069881 95
0.18858114 -5.4407125 -1.3629502 24
-0.88860899 -5.2791696 -1.2481006 317
0.092747077 -5.3196702 -1.2308666 104
-20.249138 -4.9343076 -1.4349127 54
-17.212358 -3.1831663 -1.5418606 81
-21.503239 -2.243295 -1.4868344 51
-17.718023 -1.6124462 -1.5656538 77
-21.654959 -1.4554379 -1.4914813 39
-21.362495 -0.51561654 -1.4668125 43
-17.487864 -0.40591758 -1.5373826 45
-17.184044 1.0799336 -1.5096704 45
-10.238467 2.1900904 -1.4859083 94
-21.475838 2.3923199 -1.4756075 41
-11.406473 2.3670847 -1.4468654 88
-5.6349649 2.528367 -1.3404994 136
-12.893079 4.2788773 -1.4144762 109
-2.188441 5.1818066 -1.2988991 443
-1.9313872 5.1838598 -1.275017 296
-6.4291615 5.3124089 -1.3211106 337
-4.8270307 5.2356668 -1.2491918 598
-4.6155643 5.3330917 -1.3759718 436
-3.6311283 5.2063017 -1.2322676 369
-3.258496 5.3504481 -1.3289596 572
-5.68503 5.5204916 -1.3938192 492
-4.1746664 5.5390425 -1.3489003 345
0.34889451 5.6142821 -1.3803526 28
0.32444182 5.9611888 -1.3511493 125
-0.52682614 6.5194654 -1.3569939 429
-0.099638358 7.2381663 -1.3627124 414
5.2797771 7.556828 -1.1580116 37
1.8634804 7.7280059 -1.1758689 267
23.399002 -18.236597 -0.99688423 112
-0.10604674 -18.120592 -1.112173 217
5.3709931 -18.086056 -1.1041876 199
8.1307764 -18.030123 -1.1317658 229
6.6288161 -17.818087 -1.1001935 244
2.6255953 -17.66493 -1.069754 196
0.75949103 -17.554018 -1.0701672 288
1.730864 -17.521656 -1.0630322 239
2.0993614 -14.192727 -1.1352841 279
-24.110146 -13.673729 -1.3594631 40
12.067432 -12.515393 -0.94073826 17
-24.693426 -11.323891 -1.3378752 47
-24.84112 -9.9465599 -1.3200343 23
-24.994791 -8.2683573 -1.3006314 40
-25.162603 -6.973793 -1.2907826 39
-3.7328112 -5.7239366 -1.0904495 86
-3.9895003 -5.5055609 -1.21059 55
-3.933867 -5.5001111 -1.0810091 42
-3.5999491 -5.374238 -1.1501443 95
-3.0863848 -5.3528433 -1.2190619 59
-0.78330576 -5.2313247 -1.125231 132
0.026202563 -5.396841 -1.1400331 651
-26.057144 -4.8607702 -1.3102798 48
-26.419916 -3.7623031 -1.3184221 25
-27.208363 -2.3513517 -1.3475168 36
-27.217632 -0.67570049 -1.3405626 26
-11.589709 2.2466359 -1.2361985 281
-11.589019 3.1471407 -1.253646 424
-4.5971346 5.1711168 -1.0871648 430
-3.1964254 5.1615186 -1.0544379 523
-1.6866249 5.1390953 -1.0850196 509.5
-8.457243 5.2399096 -1.2161157 355
-6.7391667 5.2207117 -1.1866966 477
-5.5007663 5.3382525 -1.2092304 346
-4.352324 5.2127247 -1.1882824 552
-3.8034494 5.236886 -1.1285838 560
-3.217252 5.3492608 -1.2078357 372
-2.085336 5.2955394 -1.1977059 442
-1.5590817 5.2278433 -1.0420356 317
-1.2589439 5.73209 -1.1166407 361
-1.0255136 5.8472428 -1.0675743 377
8.2934017 7.1355615 -0.952672 414
2.8110416 7.3650246 -1.0046289 392
3.1151526 7.2160878 -0.99891865 584
4.1714244 7.2182083 -1.052194 70
6.1424761 7.4496503 -1.0374146 318
0.64260423 7.6955962 -1.1531403 458
5.1162496 7.719512 -1.0011777 129
1.8918169 7.8722682 -1.0406717 717
2.7297828 8.0266151 -1.0830207 365
2.7391398 8.569396 -0.99154884 274
-11.579903 -21.382864 -1.1227845 21
-12.886852 -20.380266 -1.1248319 57
11.938373 -18.078564 -0.78732812 142
13.828301 -18.148499 -0.81531966 173
16.983112 -18.033991 -0.86284268 149
13.384594 -15.68845 -0.7269336 92
-4.0178213 -5.7691631 -0.86183715 35
-3.8988123 -5.528131 -0.94952339 55
-0.052772932 -5.3412681 -0.87527746 1674
-36.2957 -4.4888983 -1.171917 22
-11.622133 2.2558239 -1.0328315 344
-11.551746 3.1398652 -1.0405158 308
-3.2903073 5.0971379 -0.94480973 407
-1.5196226 5.0757532 -0.81060541 419
-8.5421276 5.2094598 -1.0280808 218
-7.2302771 5.243536 -0.9126426 280
-4.7618175 5.2823734 -0.97962993 407
-1.0384314 5.8966398 -0.90908766 290
0.19377169 7.1072979 -0.80174959 236
4.1380062 7.1607933 -0.89761537 258
2.8037903 7.3469543 -0.86310256 446
4.279304 7.3169851 -0.75458223 372
8.6960087 7.204483 -0.78567344 38
6.4202108 7.8007069 -0.88884002 213
0.69558978 7.8308496 -0.88197082 534
1.7825654 7.8415937 -0.89227819 588
2.3238466 -17.829321 -0.73152828 245
1.6237832 -17.448858 -0.71921325 247
6.0459571 -17.531895 -0.71804607 221
7.1222248 -17.460529 -0.72008902 209
0.43989387 -17.386333 -0.72503424 230
-29.142025 -14.909264 -1.0414035 31
8.3865805 -14.99304 -0.63600671 103
0.12110464 -6.5575757 -0.64158672 56
-3.8659346 -6.1024685 -0.74234992 57
-2.4382889 -5.4899192 -0.72810656 45
-1.7279919 -5.4420748 -0.68692994 84
-0.34012312 -5.4862671 -0.64916748 150
0.10035013 -5.5318632 -0.74720532 118
-11.628507 2.4684238 -0.80745071 502
-5.670424 2.6983318 -0.77215761 306
-11.60462 2.989656 -0.81173474 520
-5.8922701 3.160852 -0.6895349 591
-5.64044 5.1927824 -0.77645975 367
-1.9199853 5.1134238 -0.73326206 407
-1.5647942 5.0964766 -0.61809021 283
-16.667244 5.2774606 -0.84048104 191
-7.5663195 5.2106557 -0.7799269 172
-15.57017 5.5687375 -0.7918433 250
-1.0654895 5.8129373 -0.73063529 428
-1.4816092 6.1203661 -0.60351855 432
8.4700623 7.2984776 -0.56419218 332
2.8285909 7.5004153 -0.65369219 590.5
4.2725053 7.4060607 -0.61250085 548
7.339376 9.2746773 -0.60874128 483
2.6728797 9.8641281 -0.55670744 287
-11.557826 -20.724037 -0.68632519 60
-12.375047 -20.386902 -0.69599324 141
11.847403 -18.188877 -0.41397333 106
13.67456 -18.182961 -0.42003781 121
18.252831 -18.011337 -0.44106337 75
-18.295958 -17.869982 -0.78508514 132
5.623445 -17.715546 -0.40198386 223
6.444818 -17.638218 -0.39834005 177
7.1732469 -17.289989 -0.38933742 211
-6.3848238 -13.311481 -0.67628366 24
-0.38282254 -6.1877999 -0.50297356 32
-2.6796095 -5.4824438 -0.51563966 97
-1.5752126 -5.5488839 -0.47910646 158
-0.87894952 -5.4470067 -0.45261961 169