# .PCD v0.7 - Point Cloud Data file format
VERSION 0.7
FIELDS x y z intensity
SIZE 4 4 4 4
TYPE F F F F
COUNT 1 1 1 1
WIDTH 1301
HEIGHT 1
VIEWPOINT 0 0 0 1 0 0 0
POINTS 1301
DATA ascii
-105.6436 -15.694504 0.063975215 71
-104.62756 -15.759769 0.045904756 39
-56.110767 -15.708357 0.098685928 192.5
-55.996109 -15.795346 0.16787484 137
10.203297 -15.6675 0.19328074 20
-116.61392 -15.434944 0.045733213 68
-116.26647 -15.417324 0.078147531 23
-114.91167 -15.537538 0.068271875 31
-114.429 -15.410785 0.12998247 11
-113.94219 -15.512516 0.1163553 21
-113.60148 -15.575649 0.13545954 14
-112.90243 -15.511406 0.096543312 57
-112.58576 -15.451514 0.10371649 40
-111.91681 -15.499938 0.047622323 28.5
-111.67619 -15.584199 0.10204375 54
-110.39211 -15.429905 0.038691521 31
-108.52583 -15.428465 0.058102965 29
-108.22852 -15.553032 0.058500171 24
-108.01315 -15.437756 0.028264046 58
0.3801198 -15.428438 0.14433479 98
-116.65076 -15.284945 0.041909695 56.5
-116.29839 -15.355561 0.081201196 70
-115.31759 -15.240752 0.10203266 16
-114.46415 -15.28265 0.11939859 28
-114.39054 -15.301064 0.12353134 42
-113.6509 -15.305456 0.11640263 21
-112.48784 -15.315367 0.11331207 17.5
-111.46664 -15.231194 0.063441157 22
-110.83549 -15.337173 0.044311285 66
-109.91924 -15.269764 0.053057432 23
-105.33591 -15.337131 0.008498311 104
-46.070782 -15.203738 0.080198735 278.5
-28.002546 -15.253907 0.11591458 100
-27.883417 -15.247504 0.11203033 168.16667
-27.781111 -15.253592 0.12997141 150.5
-0.053995132 -15.366678 0.14679523 17
0.13061357 -15.376776 0.058435503 137
0.22996289 -15.35063 0.048663937 174
-115.80416 -15.196001 0.079413652 18
-115.66872 -15.186783 0.090130687 24
-115.45262 -15.105998 0.11798298 16
-114.89077 -15.132632 0.12134254 12
-114.33867 -15.166126 0.065979719 38
-114.1185 -15.096941 0.06317234 17
-113.44495 -15.07736 0.10436749 40
-112.43162 -15.177134 0.11117184 25
-112.26078 -15.121437 0.10587168 29
-109.894 -15.132012 0.074664474 44
-109.33569 -15.146557 0.076716661 24
-105.25417 -15.035419 0.0089393854 144
-51.311836 -15.086312 0.095394313 212
-51.108879 -15.082552 0.064612463 348.39999
-46.069088 -15.159711 0.11002102 205.66667
-37.084946 -15.137234 0.12400607 190.77777
-113.29565 -14.937656 0.079032898 93
-112.13785 -14.97596 0.11111283 25
-111.52822 -14.916134 0.082149386 170
-111.05718 -14.957737 0.044616818 38
-109.26297 -14.91374 0.044137478 51.5
-108.33907 -14.956533 0.03984046 38
-106.94732 -14.975724 0.0084670782 73
-23.066334 -14.994776 0.077268869 166
-115.17125 -14.733213 0.12238395 37
-114.95781 -14.678096 0.077873468 15
-114.65492 -14.627419 0.084245682 12
-113.46912 -14.712927 0.12734199 22
-113.34783 -14.701142 0.10912538 30
-113.08138 -14.750842 0.12348354 21
-112.42744 -14.798987 0.046316624 42
-112.30867 -14.746387 0.11166048 42
-112.02948 -14.736018 0.10448992 12
-111.36069 -14.799933 0.063307285 22
-111.05322 -14.621725 0.033543348 29
-110.91906 -14.661169 0.083438218 22
-110.36951 -14.679152 0.096376419 24
-110.14342 -14.605671 0.047860146 31
-107.6768 -14.783485 0.029243469 29
-105.52871 -14.684196 0.004632473 95
-115.60697 -14.416525 0.079807878 26
-115.53782 -14.563254 0.083998203 31
-114.87309 -14.487453 0.086216211 30
-113.95312 -14.454044 0.12170267 109
-113.73567 -14.427078 0.099567771 148
-113.52145 -14.485979 0.070911884 22
-112.24136 -14.556152 0.057131171 31
-111.93944 -14.480374 0.073844552 40
-110.72632 -14.467387 0.099581838 46
-110.27616 -14.504288 0.066715837 27
-110.01984 -14.573979 0.090312243 33
-108.55698 -14.442867 0.060076475 35
-115.90127 -14.260761 0.13259284 97.333336
-115.15736 -14.275679 0.12295759 24
-114.75179 -14.333789 0.075210214 22
-113.26086 -14.212839 0.062697411 22
-110.18964 -14.216228 0.059438109 49
-109.81062 -14.252511 0.052457154 19.5
-116.24194 -14.173927 0.08473134 27
-115.84988 -14.092934 0.10098374 37
-115.61002 -14.157713 0.1249795 35
-113.66599 -14.091007 0.10266638 53
-113.28854 -14.199744 0.079146862 20
-112.57776 -14.103444 0.12791121 13
-112.28818 -14.008492 0.081308007 92
-111.51871 -14.08288 0.062775612 21.5
-111.24001 -14.162174 0.081400335 20
-110.82639 -14.101885 0.057428956 25
-110.64681 -14.009624 0.079232574 16
-110.51638 -14.040865 0.084316611 15
-109.45654 -14.019594 0.087937117 25
-109.35567 -14.045904 0.09226501 32
-109.19893 -14.176994 0.055030823 142
-106.90659 -14.022778 0.046195626 56
-106.69579 -14.146915 0.017612934 136
-104.93356 -14.126104 0.056462765 18
-114.14615 -13.802266 0.084216952 23
-113.52976 -13.924011 0.12032366 18
-113.38156 -13.847427 0.10594606 42
-112.34451 -13.918297 0.12129861 22.5
-111.65463 -13.869092 0.055367589 30
-111.47385 -13.962894 0.094331145 21
-109.72684 -13.968628 0.081303716 18
-108.28929 -13.833612 0.0584445 36
-103.84547 -13.831129 0.04030633 23
-102.57745 -13.88162 0.0018237829 20
-114.72219 -13.610348 0.13650537 16
-114.30674 -13.771791 0.096284389 86
-113.57065 -13.685795 0.11991173 19
-111.16538 -13.727442 0.10594833 105
-110.78111 -13.682987 0.054995179 43
-110.32085 -13.609243 0.11376393 49
-109.51114 -13.632042 0.029860258 17
-109.12566 -13.715771 0.081762075 24
-115.32318 -13.475023 0.088228941 18.5
-115.06436 -13.526138 0.13914204 18
-113.1403 -13.477077 0.10817671 19
-112.67862 -13.508469 0.07082504 91
-111.66587 -13.580366 0.094841242 25
-111.40852 -13.447786 0.065269947 33
-111.31332 -13.427062 0.1121062 19
-110.82101 -13.579021 0.087766409 15
-110.28364 -13.588431 0.10471141 11
-110.1165 -13.450181 0.041433334 16
-109.83812 -13.447336 0.092669845 13
-109.78668 -13.400059 0.092117786 29
-108.9166 -13.481983 0.013625264 55
-107.57407 -13.538667 0.06883955 31
-107.02322 -13.487889 0.016631424 34
-116.36559 -13.207159 0.1384418 45
-113.64787 -13.203957 0.072677732 14
-112.9368 -13.275309 0.11779916 27
-111.93676 -13.364802 0.1110062 19.5
-111.55231 -13.348254 0.064990006 21.333334
-110.40131 -13.308299 0.059426427 11
-109.73033 -13.351264 0.091986358 21
-109.2623 -13.299146 0.03998208 113
-107.51368 -13.34169 0.045486808 55
-106.11493 -13.268444 0.00097203255 85
-104.5214 -13.355857 0.004324913 62
-115.8734 -13.149748 0.15454292 44
-114.95625 -13.029072 0.11964047 44
-114.66772 -13.004954 0.13913596 18
-114.52167 -13.183028 0.13280129 10
-113.97838 -13.088646 0.14025652 12
-113.20831 -13.025562 0.06110549 21
-112.47714 -13.018987 0.068369508 30
-111.96386 -13.020492 0.097133875 46
-111.41268 -13.037251 0.062427998 16
-111.29399 -13.147643 0.082521796 18
-110.2406 -13.181867 0.055746913 19
-109.67039 -13.180414 0.10067165 15
-109.57643 -13.069134 0.057124496 23
-108.61269 -13.088764 0.030935287 37
-108.50086 -13.035376 0.022755861 68
-107.84749 -13.005432 0.0001052618 68
-105.51872 -13.174656 0.040419698 38
-92.467865 -13.147439 0.11697388 66
-88.039864 -13.005526 0.18225265 178
-114.80071 -12.879702 0.13181734 27
-114.23376 -12.828417 0.13551843 21
-113.94446 -12.807214 0.12945604 14
-113.26288 -12.843014 0.1030612 72
-113.07996 -12.819006 0.070292115 14
-112.51859 -12.998847 0.10161054 16
-112.05302 -12.941626 0.10279357 40
-110.86557 -12.976617 0.11036015 19
-110.68129 -12.818039 0.11317468 34
-109.87859 -12.955593 0.078713536 16
-108.67635 -12.902036 0.030895114 31
-108.53882 -12.928598 0.06746912 39
-108.06898 -12.837093 0.029654741 22
-107.40533 -12.860111 0.00050675869 60
-107.29401 -12.962618 0.021030664 38
-104.25574 -12.994967 0.032671809 20
-114.33043 -12.768431 0.11223292 11
-112.96422 -12.734651 0.090357065 15
-112.69427 -12.634575 0.10099566 24
-112.40934 -12.650663 0.062702894 13
-111.89888 -12.662272 0.06308341 28
-110.67407 -12.611979 0.054108977 23
-110.54287 -12.782646 0.10681176 17
-109.88309 -12.653337 0.071146488 94
-109.62197 -12.761233 0.035249352 53
-108.30553 -12.748124 0.060192466 42
-107.69676 -12.63917 0.068385243 30
-114.97533 -12.562479 0.14921701 12
-114.07666 -12.534917 0.086206436 17
-113.89453 -12.554037 0.10921311 91
-113.36339 -12.511492 0.10292208 134
-111.82078 -12.502602 0.097996116 35.5
-111.59856 -12.59412 0.10107505 25
-110.65813 -12.465609 0.10210049 56
-109.95612 -12.554227 0.096989274 51
-108.12478 -12.496492 0.038256705 40
-107.61401 -12.472577 0.058220267 107
-107.10635 -12.568223 0.056963325 43
-106.7662 -12.47074 0.038732767 22
-92.382622 -12.4403 0.0074437857 182
-114.45269 -12.324991 0.090303183 18
-113.89325 -12.24346 0.12713808 21.5
-113.64407 -12.219299 0.078013182 16
-112.38779 -12.308233 0.11043394 29
-111.54421 -12.373025 0.10707533 21
-111.30885 -12.359784 0.10976088 43
-109.99349 -12.218897 0.11297488 16
-108.94797 -12.362225 0.075411797 46
-108.53403 -12.236772 0.078497291 31
-108.08115 -12.271925 0.053058863 40
-106.4395 -12.217278 0.033612728 81
-106.09427 -12.317455 0.041665316 73
-114.43764 -12.054931 0.10806859 15
-113.66984 -12.003912 0.12519479 28
-113.46711 -12.103798 0.077376723 20
-112.20714 -12.005397 0.12700951 32
-110.30104 -12.117729 0.058563471 14
-110.11987 -12.133445 0.11140192 13
-109.82412 -12.190691 0.095547915 24
-108.69054 -12.183207 0.055790842 27.5
-108.40041 -12.116772 0.06841588 24
-108.16356 -12.069748 0.068378329 18
-106.98504 -12.013123 0.040972233 23
-115.40597 -11.865266 0.13678455 46
-114.48972 -11.86458 0.13019514 24
-113.57897 -11.928016 0.092445731 16
-113.3915 -11.865616 0.12129617 13
-112.29562 -11.908 0.098701797 23
-111.6292 -11.952069 0.075028658 17
-111.26895 -11.886847 0.052221894 27
-109.03704 -11.831131 0.07914269 52
-108.71249 -11.856963 0.057375491 25
-108.39069 -11.956914 0.070905089 12
-107.83868 -11.81683 0.058161497 18
-107.7586 -11.825089 0.068309903 24
-107.19541 -11.988318 0.051143765 57
-105.00452 -11.808548 0.015478253 59
-114.54642 -11.696804 0.14140081 44
-114.26504 -11.688049 0.13240004 35
-113.60291 -11.705328 0.11895561 18
-113.40218 -11.74292 0.12920928 23
-113.31365 -11.744154 0.11508763 13
-111.27025 -11.742685 0.061075091 20
-110.71318 -11.65834 0.093185425 33
-109.80379 -11.788661 0.091552138 15
-109.69799 -11.761045 0.11067224 24
-108.85458 -11.73785 0.065433621 25
-107.98533 -11.799121 0.057940245 41
-105.70235 -11.764073 0.026476741 45
-92.500351 -11.71101 0.11505747 256.5
-116.2382 -11.592484 0.17522764 86
-114.99899 -11.46493 0.13098168 73
-113.15225 -11.525759 0.12631184 14.5
-112.22 -11.467691 0.10710621 34
-112.01341 -11.483978 0.063779235 12
-111.65806 -11.494478 0.10691941 74
-110.55486 -11.455953 0.095391512 19
-109.44769 -11.4926 0.079375982 30
-109.07249 -11.411879 0.07990849 33
-108.74715 -11.503337 0.028455079 54.5
-107.90123 -11.552532 0.021305084 46
-107.55016 -11.426409 0.042323351 69
-105.82786 -11.486715 0.029950142 24
-96.647232 -11.541063 0.021213174 90
-91.647842 -11.531839 0.12704015 186
-114.18074 -11.365077 0.13454366 15
-113.07398 -11.29349 0.10909498 21.333334
-111.88583 -11.242411 0.065770566 22
-111.39865 -11.266014 0.11072803 33
-110.59913 -11.395592 0.10954368 15
-110.3217 -11.205176 0.096541643 21
-110.19536 -11.281176 0.10417652 39
-109.26788 -11.255699 0.063642859 28
-107.27059 -11.255936 0.027933359 16
-107.19613 -11.297553 0.015976667 15
-105.72785 -11.21825 0.025732994 55
-115.74793 -11.121726 0.17810476 15
-114.70367 -11.030457 0.073416829 41
-113.87418 -11.036381 0.13525987 37
-113.46037 -11.149379 0.087224364 18
-111.74518 -11.086558 0.04715097 16
-110.57935 -11.06827 0.055806994 27
-109.95146 -11.10798 0.044192076 18
-109.76391 -11.047239 0.085946202 18
-108.89443 -11.159063 0.058980227 25
-108.17029 -11.193228 0.0078572035 56
-115.94827 -10.850371 0.15485942 52
-114.61885 -10.885821 0.098062277 27.5
-113.57867 -10.810925 0.12230492 13
-112.4442 -10.935473 0.1162374 28
-110.504 -10.848238 0.044435501 24
-110.23615 -10.817256 0.093484521 34
-110.16689 -10.910795 0.12276435 12
-109.88203 -10.932247 0.093942165 47
-109.64297 -10.962044 0.086348057 32
-109.3696 -10.967009 0.075254917 16
-109.12551 -10.844526 0.084518313 10
-108.88201 -10.830283 0.01518482 23
-107.80177 -10.888948 0.039065361 35
-106.75198 -10.851364 0.041979909 44
-106.293 -10.946579 0.042832851 33
-106.05767 -10.960972 0.033350348 85
-114.13844 -10.765359 0.11783683 35
-113.80675 -10.69312 0.13995981 20
-112.89848 -10.676573 0.065244198 18
-112.66885 -10.760612 0.0816679 21
-112.29659 -10.696448 0.10956883 27
-110.55582 -10.712289 0.070686936 52
-109.70892 -10.641212 0.070638299 32
-109.5573 -10.666719 0.083338499 21
-108.5591 -10.618916 0.081435323 30
-107.43312 -10.625604 0.01366365 50
-106.16682 -10.630272 0.007460475 18
-104.75711 -10.621521 0.014407516 106
-114.47278 -10.421898 0.13784432 22
-111.65195 -10.508007 0.037964225 21
-111.55061 -10.537183 0.066898823 16
-110.07736 -10.489416 0.096249461 22
-109.64234 -10.592634 0.090991735 19
-108.12755 -10.416287 0.049774885 14
-107.89057 -10.402543 0.05811882 48
-107.46479 -10.594383 0.057988167 60
-106.48846 -10.592152 0.026367188 39
-105.98198 -10.586987 0.034190416 64
-98.137085 -10.47443 0.10723174 78
-115.756 -10.300091 0.1865952 208
-115.28557 -10.38551 0.11280978 23
-114.2472 -10.233748 0.12698257 157
-112.2445 -10.309677 0.089900613 28
-111.00319 -10.303289 0.048022985 29
-110.93414 -10.256745 0.032149911 15
-110.07319 -10.302296 0.042798877 16
-106.39421 -10.230149 0.043877363 38
-97.039841 -10.254786 0.0071208477 45
-115.81625 -10.027715 0.19714558 155
-115.49567 -10.071999 0.17061692 75
-115.29636 -10.192497 0.094043374 46
-113.78742 -10.121443 0.10635507 55
-112.95064 -10.181899 0.12463534 44
-111.62849 -10.035184 0.10018933 21
-110.95689 -10.080298 0.097520351 29
-109.99905 -10.163894 0.048136711 17
-109.11363 -10.154176 0.018940687 23
-108.45261 -10.090954 0.060738325 31
-107.43185 -10.078185 0.022391438 13
-106.78142 -10.028563 0.01309371 23
-105.86994 -10.036809 0.0044848919 63
-105.57508 -10.153561 0.030948758 59
-115.21204 -9.9842091 0.14792967 18
-113.08407 -9.8612537 0.086263537 11
-112.5328 -9.8478498 0.11152184 33
-112.13184 -9.963728 0.052169681 23
-111.67124 -9.9511271 0.084079862 13
-111.19541 -9.8473024 0.089394212 27
-110.56259 -9.813653 0.10767937 17
-110.11805 -9.9088936 0.043174982 51
-108.63818 -9.8343086 0.051602006 34
-108.45294 -9.9557047 0.020137429 40
-108.15453 -9.9815845 0.039125681 23
-107.91086 -9.8181267 0.053973615 44
-107.31546 -9.9847755 0.022640467 52
-106.97556 -9.8488188 0.039363861 29
-104.47615 -9.9489832 0.013882279 89
-113.9332 -9.717 0.10649729 51
-112.76678 -9.6080732 0.073492765 14
-110.83971 -9.602704 0.06665349 12
-110.47242 -9.7801371 0.09448278 19
-109.20014 -9.6423206 0.072228551 24
-108.51414 -9.7165661 0.080849767 34
-108.27008 -9.6881418 0.063551068 51
-107.05454 -9.7007475 0.021912634 41.5
-106.27895 -9.6363106 0.0410676 95
-106.1899 -9.6304693 0.0068500042 34
-115.02419 -9.5325603 0.12965453 78
-113.85859 -9.4227724 0.11872852 21
-111.12208 -9.4395981 0.091070771 16
-110.98994 -9.4906464 0.094100356 21
-110.70146 -9.5451536 0.080302238 11
-110.35347 -9.5390673 0.097781062 23
-106.42413 -9.4226341 0.044439435 42
-104.13866 -9.5594492 0.0038421154 37
-101.57448 -9.4397736 0.00020420551 28
-98.129898 -9.5288153 0.11807978 47
-114.23731 -9.3062983 0.075180292 34
-112.89081 -9.3372355 0.081652641 48
-112.38651 -9.3786945 0.0983845 22
-112.09036 -9.3091326 0.090806961 22.5
-110.5237 -9.3926144 0.087602496 31
-110.33643 -9.3996849 0.089752674 37
-108.15182 -9.3244572 0.038056254 49
-107.45818 -9.2244415 0.020699263 84
-114.8298 -9.0662479 0.11655164 78
-113.74298 -9.1505957 0.11181688 42
-112.71777 -9.1050663 0.11270154 29
-109.02251 -9.0735531 0.05660665 22
-108.91451 -9.1704807 0.071232557 38
-108.33658 -9.0768776 0.088924885 59
-107.51347 -9.036459 0.067669451 65.5
-107.14301 -9.0744886 0.025322914 20
-106.70924 -9.0737696 0.046678662 55
-105.29182 -9.1355057 0.025675535 79.5
-104.76965 -9.1174593 0.0078101754 36.5
-100.86724 -9.1402645 0.0096942186 28
-112.47979 -8.9322357 0.090999484 89
-112.02786 -8.8520813 0.090446711 15
-110.89001 -8.8602905 0.098702431 42
-107.08412 -8.8098803 0.16241026 32
-104.74818 -8.8486662 0.016043425 94
-104.32481 -8.9602404 0.00033998489 29
-98.825485 -8.9330788 0.074561596 49
-115.15145 -8.725029 0.14943385 53
-114.80546 -8.7273273 0.08884716 64
-113.48875 -8.6532364 0.10828388 22
-113.21451 -8.6778784 0.096805692 15
-112.46677 -8.6758251 0.082056761 20
-112.32211 -8.6349068 0.091727734 14
-111.55764 -8.6520329 0.087696314 23
-110.60434 -8.6618443 0.089931965 34
-108.66136 -8.7976933 0.082884192 69
-107.3632 -8.7422714 0.070576072 50
-106.87994 -8.7654705 0.05847013 30
-105.74119 -8.7838297 0.035171628 46
-104.62695 -8.6645069 0.0084123611 86
-114.43143 -8.5979176 0.10694182 28
-114.29706 -8.5898666 0.078959048 65.5
-111.82498 -8.5600662 0.096376777 19
-111.33813 -8.5129566 0.092484474 15
-110.60811 -8.4921694 0.074935555 54
-110.13117 -8.5652666 0.13124824 22
-109.18767 -8.5652933 0.082819819 42
-107.57053 -8.4972343 0.080659628 43
-106.72555 -8.52318 0.02180934 66
-106.09805 -8.4127388 0.0098577738 27
-105.6547 -8.5231962 0.034911513 71
-105.25143 -8.5422249 0.027360559 56
-98.97908 -8.5904989 0.16051102 77
-114.23522 -8.3318529 0.091105461 64
-114.03591 -8.3758163 0.07428062 109
-113.00265 -8.3922396 0.093512535 19
-110.9549 -8.2301035 0.06571877 27
-109.54053 -8.3042507 0.092679143 50
-107.86366 -8.3053017 0.065855503 36
-106.67796 -8.3901978 0.022556067 88
-106.41707 -8.2309122 0.055421948 68
-100.16816 -8.3261986 0.15869653 197
-112.57347 -8.0489225 0.052161932 13
-111.40199 -8.1806746 0.089994073 19
-111.11288 -8.1066875 0.086989999 24
-107.4173 -8.1137524 0.043408871 43
-106.94771 -8.0916491 0.036315322 31
-104.92393 -8.1327085 0.012173653 40
-101.27734 -8.1760368 0.0075545311 30
-114.55852 -7.8117881 0.0839082 94
-113.65069 -7.8456392 0.072978497 24
-113.59325 -7.9490547 0.10139811 11
-111.78057 -7.9511914 0.069431186 23
-111.05156 -7.8270082 0.087318897 20
-110.52435 -7.8898635 0.085192204 15
-110.30721 -7.8797479 0.098051548 23
-107.83183 -7.8987994 0.10670257 15
-107.46573 -7.9549856 0.094529986 55
-106.51268 -7.9130125 0.026709676 46
-114.78368 -7.63029 0.14554083 56
-113.8392 -7.6791468 0.073085308 109
-113.02325 -7.7107 0.078298211 11
-112.32793 -7.6373596 0.096747279 55
-111.72602 -7.6036167 0.036126733 14
-107.95193 -7.6191506 0.10992587 10
-114.11927 -7.496088 0.15139592 67
-113.67484 -7.4592533 0.072482109 50
-112.46102 -7.5187449 0.15787953 199.66667
-112.34164 -7.5923071 0.095488429 90
-110.01192 -7.5141635 0.091439366 56
-108.36916 -7.5 0.098116755 24
-107.52792 -7.4662867 0.10284311 25
-106.04765 -7.4089489 0.063405871 59
-105.55929 -7.4724417 0.044974923 14
-105.28767 -7.5631361 0.027240396 46
-104.79436 -7.4848576 0.036509991 31
-114.05738 -7.2959595 0.19424796 14
-112.30717 -7.2725487 0.16573727 18
-112.05209 -7.3218403 0.062472343 12
-110.45116 -7.3036194 0.078719795 41.5
-110.24498 -7.3353672 0.10139537 29
-109.1469 -7.3893027 0.093811274 90
-107.99606 -7.2785573 0.074494004 11
-107.49074 -7.3002515 0.098231077 24.5
-106.56271 -7.3735647 0.074264646 22
-104.8344 -7.3827238 0.020614982 39
-104.20161 -7.3651204 0.002669692 28
-114.08125 -7.1468191 0.19550788 146
-110.11851 -7.1127625 0.10053202 12.333333
-107.24734 -7.0733395 0.068653822 53
-106.94476 -7.1381817 0.054903865 61
-101.04472 -7.0957484 0.12631798 23
-111.46735 -6.9556274 0.097413182 17
-111.25298 -6.95121 0.066521406 25
-111.06289 -6.8212609 0.068214417 40
-110.09453 -6.9711523 0.094248533 27
-106.83872 -6.8078561 0.074968219 54
-104.97932 -6.9519873 0.038038611 34
-104.39568 -6.8944607 0.027040362 46
-111.29961 -6.7014313 0.096637845 11
-109.32213 -6.6119909 0.094954729 13
-108.91382 -6.7662053 0.064999461 78
-107.56451 -6.7782059 0.061269879 40
-105.66243 -6.7646198 0.033140063 15
-105.39513 -6.6949768 0.042708874 31
-104.62772 -6.7827115 0.039094329 37
-104.08591 -6.6683073 0.026565433 17.5
-101.11946 -6.7222624 0.054139614 12
-112.0276 -6.5216064 0.092674494 18
-110.86437 -6.4348321 0.071771979 49
-110.36796 -6.4564099 0.080329299 49
-108.99067 -6.4348974 0.095489621 35
-108.49906 -6.5962887 0.092606664 45
-107.5302 -6.4465265 0.059719563 23
-106.85448 -6.4194956 0.051295877 67
-106.68644 -6.4420614 0.089287877 37
-106.40342 -6.5396051 0.048817754 29
-106.27441 -6.5026741 0.056680877 38
-105.71128 -6.46984 0.02866888 45
-112.31323 -6.3881564 0.090264916 19
-112.02119 -6.3614721 0.09393239 19
-110.70369 -6.2795153 0.069126606 25
-110.26244 -6.2556629 0.088137031 25
-110.16127 -6.3393469 0.093354106 24
-108.75287 -6.2139196 0.10055864 36
-108.5595 -6.3501587 0.1134038 14
-108.32083 -6.268961 0.080157757 56
-107.60815 -6.3935518 0.054976583 63
-107.48473 -6.2575722 0.056380987 36
-106.76456 -6.3229003 0.054423332 18
-105.83145 -6.2491169 0.028108358 37
-105.58299 -6.2616343 0.02718091 23
-104.8576 -6.3858814 0.04571569 30
-103.95667 -6.2874269 0.016058207 57
-111.88022 -6.0413523 0.049887538 14
-110.54556 -6.0873775 0.090052485 33
-110.12924 -6.1808209 0.075380325 32
-106.73584 -6.1032248 0.089350343 28
-105.68381 -6.1089325 0.063465357 44
-104.498 -6.10607 0.035352468 24
-101.73291 -6.0059671 0.017053604 19
-101.31393 -6.1813221 0.0070354939 33
-112.11296 -5.9315434 0.062944293 10
-110.68466 -5.9435759 0.095477939 19
-109.37823 -5.8521719 0.069059849 42
-106.23394 -5.9797792 0.064185262 43
-112.10646 -5.6496544 0.16551638 238.39999
-111.05296 -5.6042786 0.09612453 13
-110.96533 -5.7612019 0.063933969 27
-108.33784 -5.7841396 0.078580618 35
-107.85623 -5.6284122 0.091274023 24
-107.33636 -5.7164922 0.061956644 24
-106.36461 -5.7232909 0.042412758 47
-106.1911 -5.7119608 0.02545464 37
-101.75368 -5.6334925 0.10089731 20
-113.54683 -5.5640602 0.060525179 21
-111.30894 -5.410428 0.055652499 11
-110.52035 -5.4230146 0.066945434 30
-107.65237 -5.5786247 0.093334913 28
-106.61481 -5.5638962 0.056940675 21
-105.67036 -5.4752264 0.082741857 10
-103.92992 -5.5479021 0.026493132 23
-111.2086 -5.3185024 0.0548774 20
-110.47665 -5.2470016 0.10217255 21
-109.89974 -5.2385111 0.073642015 56
-109.62743 -5.3154321 0.094507337 28
-109.10551 -5.3684549 0.08687377 27
-107.49774 -5.262701 0.11254251 41
-107.11478 -5.3080773 0.078504123 37
-104.51641 -5.399127 0.013932347 40
-102.35233 -5.2885585 0.00046849251 38
-111.18625 -5.0916662 0.055480361 14
-110.77428 -5.1099262 0.051219225 11
-109.98592 -5.0423918 0.080054998 46
-109.54605 -5.0400972 0.15363157 21
-105.92498 -5.1296334 0.074813366 35
-104.70049 -5.1380377 0.071773052 15
-103.91682 -5.0126166 0.040220737 51
-110.02115 -4.9371018 0.083571315 51
-108.51642 -4.8147497 0.11193466 79
-105.22344 -4.8901205 0.029482841 19
-104.981 -4.9808111 0.023615003 51
-104.13909 -4.9580269 0.03825891 41
-101.63139 -4.8311005 0.033800006 31
-112.08154 -4.684598 0.093607426 16
-111.48952 -4.7088757 0.083697677 11
-110.34039 -4.6147499 0.089426398 34
-109.49005 -4.6003418 0.11387825 27
-109.1662 -4.7226658 0.07695961 60
-107.45472 -4.6997604 0.11032975 32
-105.81951 -4.7925205 0.12152874 15
-104.51798 -4.6298542 0.017625093 51
-109.575 -4.5031805 0.10226715 55
-109.04614 -4.4006519 0.083936691 32
-108.87495 -4.4890728 0.098757267 25
-107.44453 -4.5871897 0.10906684 13
-106.65388 -4.4704952 0.086940169 23
-106.46055 -4.5257688 0.07739532 32
-106.09859 -4.5073805 0.082329273 29.5
-105.9791 -4.5296359 0.081655145 27
-105.78477 -4.5832939 0.076892495 25
-105.02233 -4.4600353 0.05982089 41
-103.81701 -4.4430356 0.046612144 38
-101.64774 -4.5475578 0.0087375641 30
-109.99529 -4.3390388 0.095668077 20
-109.34915 -4.2019529 0.076100707 58
-109.02847 -4.2996907 0.085758626 63
-108.98312 -4.2221627 0.10854411 47
-107.16577 -4.3325453 0.074608684 40
-106.24783 -4.3237305 0.099851966 28
-105.78914 -4.2252903 0.066827178 19
-105.28268 -4.2291069 0.082697272 15
-104.40887 -4.356391 0.054586053 52
-103.36824 -4.3415899 0.051210105 13
-100.79214 -4.3129735 0.0051609278 20
-109.14082 -4.0043244 0.094314694 32
-108.67735 -4.0656157 0.10143232 62
-108.50771 -4.0026932 0.081831336 70
-108.13404 -4.0887346 0.10366642 47
-107.85453 -4.0146561 0.1043731 55
-106.15441 -4.0480294 0.07760179 27
-105.91591 -4.0228643 0.082744718 19
-105.68693 -4.1825953 0.06647718 41
-104.61358 -4.0595889 0.056456208 17
-104.18333 -4.0830431 0.056159735 56
-113.5202 -3.9815588 0.057194829 31
-111.71078 -3.8611815 0.1318018 136
-109.95614 -3.8823299 0.092055321 15
-109.51653 -3.9148722 0.10083854 37
-107.65616 -3.8477893 0.086324453 33
-106.63912 -3.8547058 0.052629471 35
-106.01614 -3.9911633 0.074726224 23
-104.30074 -3.9632974 0.055843115 52
-111.68043 -3.7686081 0.13837922 166
-109.44015 -3.6466055 0.1509074 18
-108.18876 -3.614646 0.068644047 69
-106.33504 -3.6556845 0.082327724 11
-104.68524 -3.6472445 0.056617975 19
-102.32566 -3.7907639 0.0076159239 103
-101.90551 -3.7571244 0.038127422 30
-108.17882 -3.4638309 0.074085593 27
-107.43176 -3.5161066 0.065386057 43
-106.44682 -3.4106908 0.073215127 18
-105.82796 -3.5555954 0.082937121 44
-105.20011 -3.4938478 0.023476005 37
-105.07024 -3.5947981 0.11021674 18
-104.58821 -3.4070091 0.055890441 43
-104.0134 -3.4159145 0.057728529 21
-103.87679 -3.5543199 0.031065822 40
-101.70878 -3.4645815 0.042688012 19
-111.2645 -3.3907557 0.07193172 16
-109.48668 -3.2913141 0.10235864 24
-109.16821 -3.2775078 0.068057656 42
-108.8617 -3.287066 0.084052444 40
-108.50877 -3.3392296 0.11408198 26
-107.90649 -3.3233614 0.06506741 56
-107.57187 -3.2231884 0.057444215 33
-105.62627 -3.2468343 0.053404927 22
-105.54129 -3.200614 0.075524688 24
-104.10123 -3.2409654 0.10110629 24
-103.77049 -3.2164488 0.057647705 59
-100.74415 -3.2900252 0.013753533 35
-110.85303 -3.0149946 0.035634398 11
-109.48965 -3.054029 0.088186502 16
-108.70347 -3.022687 0.086129069 58
-107.11506 -3.0264435 0.082509637 27
-104.23264 -3.1774197 0.060469985 25
-103.082 -3.0474362 0.023087978 84
-111.9328 -2.9902124 0.083013415 60
-109.27605 -2.8719578 0.079116344 33
-106.99071 -2.847374 0.044794917 32
-105.80948 -2.8582492 0.068860888 18
-105.67013 -2.9287558 0.047292471 41
-105.55258 -2.8604612 0.037825465 20
-103.17063 -2.978056 0.029500842 20
-85.014778 -2.8761077 0.15828687 176
-110.33726 -2.7857056 0.042740464 11
-108.07973 -2.624773 0.07604599 35
-105.87267 -2.713563 0.046262026 38
-105.61948 -2.6123447 0.12123442 11
-105.51391 -2.7010889 0.05050683 22
-103.89706 -2.6769247 0.0073167086 30
-103.06779 -2.7432442 0.038459778 65
-102.75943 -2.7859163 0.060460687 30
-102.32313 -2.675787 0.013960242 79
-111.05377 -2.4112358 0.035191536 10
-106.64432 -2.5188103 0.048366666 23
-106.21781 -2.4631824 0.074794769 32
-105.70469 -2.4610901 0.066767097 32
-105.24197 -2.4445086 0.043643355 27
-105.11938 -2.4936724 0.06911242 26
-103.48132 -2.5306759 0.010701418 32
-111.22511 -2.3519478 0.046804547 24
-111.04066 -2.2963591 0.038572669 15
-110.25097 -2.3833227 0.069643617 15
-109.66196 -2.3013678 0.078481317 13
-109.40247 -2.2189083 0.072630525 13
-108.35814 -2.3234339 0.06958735 39
-107.99562 -2.2398844 0.046881676 43
-106.56174 -2.3654232 0.050466061 41
-106.03622 -2.2722893 0.075925946 23
-105.50432 -2.3317814 0.05565834 17.5
-105.00107 -2.2300348 0.10825169 19
-103.79369 -2.3767195 0.062947631 18
-102.48775 -2.2772884 0.021610618 26
-111.4776 -2.0865755 0.13185823 30
-111.2711 -2.0419931 0.10049534 58
-111.07531 -2.1955385 0.043002963 20
-108.73244 -2.1410275 0.05846107 46
-104.80946 -2.1877966 0.064765096 34
-104.50827 -2.0801315 0.070640206 49
-101.52855 -2.1190047 0.059396386 20
-111.38924 -1.9256229 0.12913787 110
-109.78642 -1.9539042 0.074613094 11
-109.37579 -1.8045788 0.079932809 14
-108.9464 -1.9744768 0.054549575 37
-105.10345 -1.9566088 0.071782708 27
-109.71828 -1.6505923 0.043086946 12
-109.36048 -1.788651 0.070220113 15
-105.74058 -1.7965622 0.045576692 34
-104.97179 -1.6633892 0.075081587 30
-104.0543 -1.7277851 0.025800824 26
-93.069092 -1.6840332 0.098518908 343
-111.11945 -1.5413103 0.088045001 27
-108.88947 -1.4079924 0.077098012 21
-107.64951 -1.5051098 0.040254354 24
-107.42571 -1.4637909 0.07099998 18
-105.596 -1.438736 0.06757617 26
-105.09489 -1.4591169 0.058059931 40
-101.63582 -1.5731874 0.029677749 38
-100.72913 -1.5583854 0.022232175 41
-108.90363 -1.3663797 0.044559658 36
-107.52982 -1.3532658 0.079547524 35
-106.62018 -1.2908859 0.031403542 23
-105.46777 -1.2835979 0.036534309 25
-103.912 -1.2647381 0.10395896 21
-102.62144 -1.2405868 0.0667063 25
-111.27074 -1.144846 0.080483913 13
-109.1825 -1.1041803 0.038324833 27
-108.89909 -1.1187201 0.04268682 30
-107.25173 -1.1361837 0.075580955 20
-105.27834 -1.0069075 0.062836647 15
-104.68623 -1.1595917 0.0529145 31
-103.71706 -1.0930228 0.020046353 33
-102.94162 -1.179203 0.049470425 30
-102.3623 -1.1574602 0.0052120686 58
-107.27271 -0.94868851 0.039975405 20
-106.7507 -0.81795788 0.082341075 15
-106.5593 -0.91436005 0.069020033 28
-106.3876 -0.91316509 0.072606564 20
-105.42555 -0.9893465 0.11819494 12
-104.49792 -0.93544167 0.053145964 29.666666
-101.51856 -0.90425301 0.066013336 24
-91.661659 -0.90755606 0.098553121 136
-108.51926 -0.71568632 0.090029597 26
-108.28497 -0.72558498 0.075887799 37
-108.09334 -0.70308971 0.069157302 35.5
-107.88866 -0.77269077 0.074303627 53
-107.46849 -0.73275805 0.074745417 23
-105.95173 -0.61887169 0.024193764 18
-105.54395 -0.7132349 0.042264462 27
-103.65969 -0.65386772 0.030560136 15
-103.4456 -0.75559807 0.018896699 59
-101.85371 -0.72611189 0.048778415 41
-107.38573 -0.40851974 0.067109227 15
-106.16022 -0.52094555 0.068129182 36
-105.63795 -0.47537041 0.040272951 28
-104.3642 -0.53346539 0.053429604 27
-103.45515 -0.53238678 0.018383861 50
-100.56709 -0.5364728 0.031458855 35
-107.21545 -0.29649925 0.081676364 19.5
-106.58167 -0.24444008 0.070074439 28
-104.32854 -0.31602907 0.039267778 24
-103.10958 -0.33415985 0.039021254 61
-92.542252 -0.3722086 0.13011777 143
-64.897316 -0.36321989 0.1745559 527.66669
-64.718254 -0.30147886 0.1554838 396.33334
-106.79278 -0.18656254 0.071266294 22
-106.23975 -0.0981884 0.037893772 31
-105.7202 -0.045035362 0.062580705 29
-104.87144 -0.062147141 0.063686013 29
-101.85736 -0.11296272 0.0064125061 16
-64.973434 -0.16579962 0.13876116 440
-64.535667 -0.098083496 0.14027756 383
-107.95668 0.18645573 0.075394392 29
-106.39977 0.1862812 0.077872634 15
-105.93018 0.10809422 0.035384774 23
-105.56025 0.024098396 0.076223612 17
-104.67293 0.10525417 0.085089684 20.5
-101.73029 0.16249704 0.031624913 31
-93.155548 0.10686111 0.19547111 299
-64.752663 0.10273965 0.026762942 131
-110.90927 0.32923698 0.069411516 33
-106.4496 0.22210312 0.057442546 24
-105.72086 0.22285938 0.073331475 22
-105.36798 0.31818676 0.088286757 21.5
-105.06368 0.22831535 0.026641726 22
-104.3588 0.32646179 0.025038362 27
-104.03175 0.23920822 0.041393161 30
-68.857895 0.38926792 0.19129634 130
-64.584595 0.31264067 0.12974215 200
-107.91258 0.42991829 0.096280813 17
-107.51899 0.40084076 0.070558667 20
-106.82326 0.41283703 0.075593948 15
-105.13074 0.57448101 0.057809234 30
-104.97002 0.55316639 0.059815884 42
-103.34711 0.54705048 0.0084002018 53
-77.92733 0.50157684 0.10740719 212.86667
-68.901352 0.45545191 0.086436264 256.78571
-64.616493 0.40274835 0.16288269 156
-64.535461 0.50776625 0.14188713 447
-109.79535 0.74441147 0.09473443 16
-109.20763 0.77048492 0.10599983 13
-107.16217 0.74315453 0.09167397 25
-105.99721 0.6167326 0.060393095 21
-101.61688 0.72269106 0.067265153 25
-87.019714 0.6706109 0.093026578 227
-86.935715 0.70603377 0.084539585 150.45454
-64.465469 0.67841804 0.18218803 600.5
-111.34335 0.93725109 0.093961895 23
-111.18245 0.90535355 0.10730875 33
-105.69966 0.95081329 0.03888762 26
-105.45719 0.90017509 0.074501038 38
-104.07848 0.94509983 0.067349792 40
-86.936356 0.81049728 0.16219985 172.5
-104.70442 1.164134 0.039889932 20
-104.57304 1.0260506 0.029500723 31
-103.58491 1.0225077 0.015062332 28
-101.82172 1.1054101 0.048744082 35
-111.3248 1.2583218 0.094665051 17
-109.3213 1.3336716 0.1162852 12
-108.93951 1.2035284 0.10755444 16
-106.34523 1.2393188 0.090326786 14
-106.19753 1.2853899 0.059462667 14
-104.73914 1.2190409 0.094691515 13
-103.80442 1.2725763 0.020526528 31
-61.485424 1.3539979 0.10581471 283.20001
-61.371468 1.3473802 0.11468491 267.5
-112.43476 1.4727039 0.067239881 56
-108.41991 1.5702944 0.10865873 14
-107.76128 1.4349442 0.075205564 18
-106.42821 1.5394793 0.041460395 27
-104.68867 1.5580869 0.046203375 26
-103.91869 1.5521069 0.05665648 33
-110.15598 1.6169624 0.09893167 16
-109.96801 1.7412682 0.065613627 11
-107.28233 1.6214352 0.078039885 12
-110.26764 1.8328562 0.086567521 12
-107.21246 1.9937382 0.089308739 18
-106.22226 1.9629812 0.085623145 28
-104.26441 1.8176727 0.0452739 33
-103.59186 1.8061056 0.026094198 39
-103.33556 1.953022 0.10816896 25
-102.89966 1.8768916 0.046067297 59
-100.59361 1.8170576 0.031266928 24
-112.13907 2.1698437 0.078170538 51
-108.13233 2.1745691 0.086327314 24
-107.87194 2.1366959 0.10611582 34
-106.34158 2.1525269 0.082852125 22
-105.36326 2.1939812 0.077834249 12
-104.07146 2.1948013 0.079908609 27
-103.68401 2.0129967 0.035416484 40
-91.464722 2.1893606 0.067517161 42
-91.341003 2.1709864 0.043182891 173.33333
-8.4732046 2.1678042 0.12617719 278.625
-8.2050152 2.1600261 0.018152073 264.33334
-112.12814 2.2665987 0.0603894 47
-108.48947 2.2274857 0.085044742 20
-107.51543 2.2679882 0.10306787 29
-106.18592 2.3673248 0.10589409 11
-105.37024 2.2159882 0.06712079 10
-104.34593 2.246604 0.13316262 11
-102.97459 2.3998365 0.056906939 47
-102.62994 2.2671251 0.050098062 69
-101.41374 2.3684816 0.04714179 16
-91.444397 2.3000488 0.093533956 191.33333
-91.336967 2.2856953 0.11405376 94
-8.4501972 2.2792518 0.077963658 415.25
-111.23552 2.5951643 0.10147202 27
-108.99209 2.5072899 0.080946922 13
-108.74096 2.582902 0.083214045 11
-108.04535 2.5639238 0.1072216 13
-107.48555 2.4097195 0.10186827 45
-106.49328 2.5833187 0.10469222 11
-103.72789 2.4587126 0.1282922 12
-101.69665 2.4056439 0.065939069 23
-8.4941473 2.469542 0.056935273 636
-8.3943148 2.5577128 0.098287635 497
-111.43159 2.6479034 0.1555748 25
-107.89952 2.6139679 0.10162354 28
-107.44979 2.7883387 0.10726511 26
-107.09428 2.7369156 0.066478372 17
-105.9491 2.6663809 0.061003089 19
-104.21432 2.7625294 0.078727722 12
-104.07213 2.7710552 0.099361897 15
-15.689352 2.7150488 0.11530421 82
-14.345018 2.7027364 0.13751359 116
-9.5228758 2.7214136 0.1067895 133.5
-8.4769506 2.6757362 0.10249358 244.33333
-8.2948179 2.7225957 0.070834137 210
-0.040527344 2.7498815 0.067047447 84
-110.77229 2.9067059 0.12328219 24
-108.42714 2.8433504 0.086380005 21
-106.98793 2.8071623 0.056167603 11
-106.6272 2.8157787 0.072923064 12
-103.07661 2.894846 0.062707663 42
-102.72787 2.9530125 0.062213421 67
-102.05018 2.8065586 0.01083076 21
-101.65421 2.9623685 0.050100565 29
-41.45034 2.9632866 0.075717561 287
-41.33136 2.9760547 0.12583691 144.75
-9.4821053 2.9162471 0.028322246 116.91666
-9.3728085 2.9423811 0.19706652 120.33334
-8.4375572 2.9696512 0.1772739 188.33334
-0.26031137 2.9394236 0.15813577 114.33334
-0.18701816 2.928592 0.0044111647 310
0.058369637 2.8096521 0.0062119216 172
-108.02506 3.1675205 0.12789142 13
-107.93888 3.0835705 0.10852611 17.5
-106.93056 3.0897002 0.087459385 23.5
-106.27079 3.1545277 0.088652372 14
-104.54884 3.1306553 0.058622718 25
-101.57016 3.0016365 0.019278526 37
-85.716293 3.0753455 0.038527727 134
-85.538376 3.0964859 0.098605484 99
-84.958084 3.0304079 0.020246863 61
-84.41613 3.1616054 0.085526705 68
-84.060654 3.0902967 0.061429501 47
-83.86174 3.1213298 0.050511885 108.6
-69.147324 3.1671216 0.067944229 161.5
-41.433533 3.0231357 0.10806176 52
-41.300629 3.0354195 0.13250272 195.08333
-16.479328 3.046149 0.11881966 121.29166
-16.298035 3.0242231 0.10433566 66.833336
-8.4457521 3.0946019 0.031666845 197
-0.016138554 3.0464134 0.0055106059 192
0.031664729 3.0487227 0.17081343 225.5
-106.70737 3.3611031 0.065920115 28
-105.70707 3.2599392 0.089826226 14
-105.18251 3.3205462 0.064198256 14
-103.33671 3.2562332 0.059114575 47
-102.47311 3.2158833 0.060032368 34
-85.587395 3.2546406 0.10421646 34
-80.247223 3.2712822 0.015505433 76
-69.501846 3.3385677 0.093951344 297.60001
-69.279617 3.2441633 0.05149889 364
-69.12175 3.3962779 0.17529988 274.5
-68.919052 3.3438978 0.10457712 286.5
-68.780022 3.3990936 0.020236135 362
-65.364922 3.3192587 0.06101048 393
-64.667206 3.212275 0.0083847046 335
-64.42144 3.3078318 0.048167229 273
-42.853336 3.3893716 0.0949018 255.25
-42.755875 3.3664932 0.11901335 188
-8.4095974 3.2620394 0.11336237 698
-8.3026075 3.3013306 0.14026982 348.16666
-107.05589 3.5066957 0.078984022 22
-106.68282 3.4494925 0.073593736 19
-106.06036 3.4697943 0.10822868 11
-105.82034 3.4296436 0.10882783 16
-105.77805 3.4715929 0.098338962 15
-104.52509 3.5932713 0.074324012 16
-102.10645 3.4330373 0.068165302 33
-101.99377 3.4067173 0.010167718 49
-92.816139 3.5844975 0.047471642 116
-88.941406 3.4472036 0.032914281 20
-83.872696 3.4600234 0.05415374 61
-69.510063 3.5558443 0.022396564 275
-69.389381 3.5077758 0.18707955 401
-69.012733 3.4064207 0.16070664 315
-68.7714 3.4564013 0.028510571 395
-64.182541 3.5226312 0.0024134517 167
-51.299992 3.5162361 0.099348404 152
-51.173336 3.4845114 0.11203837 148
-42.770725 3.4244442 0.13205916 266.83334
-110.99029 3.7054615 0.12193465 18
-105.7184 3.687789 0.094368935 13
-103.67547 3.6772537 0.071859956 22
-92.928825 3.6752374 0.083997406 81.333336
-92.730598 3.7140265 0.12194697 124.66666
-85.725983 3.7589579 0.090351105 69
-84.370842 3.6754007 0.064737678 79
-84.030594 3.6646929 0.060179055 29
-79.729378 3.6925206 0.012272179 105
-69.470642 3.7607651 0.18170023 310.33334
-69.027069 3.6802266 0.12718472 375.5
-68.925858 3.6713955 0.1302471 291.66666
-65.852158 3.6629517 0.030929953 325
-65.554626 3.6862853 0.073956341 219
-64.556908 3.7173209 0.078897536 156
-106.56905 3.8432894 0.18813682 12
-104.06062 3.9679708 0.031809807 28
-101.33561 3.8128662 0.048166275 29
-84.90097 3.8983111 0.11841017 142.5
-84.686539 3.9978762 0.14173019 185
-84.453888 3.9171398 0.11906258 175.33333
-84.379021 3.876277 0.10547721 171
-83.868866 3.853302 0.095039189 45.5
-83.798935 3.8184667 0.06855607 52
-79.467957 3.9386988 0.034793735 127
-79.319199 3.9438369 0.17776267 177.83333
-78.914375 3.8388777 0.021501899 175
-73.667427 3.9393494 0.07403104 183.125
-110.0272 4.088686 0.11474967 16
-106.04028 4.1427078 0.06347537 11
-104.48512 4.0594864 0.058533967 17.5
-104.32751 4.1609468 0.085700512 13
-102.92949 4.082655 0.0408355 55
-101.4611 4.0347571 0.073543668 42
-85.749573 4.1556134 0.10270905 47.5
-84.822655 4.0365572 0.15758653 210.66667
-84.719223 4.0306525 0.1301474 151.5
-84.483864 4.0113683 0.095850825 138
-80.26445 4.0834875 0.016587496 96
-79.312973 4.0623245 0.091621906 103
-64.909264 4.1647005 0.092728734 311
-111.86977 4.3059931 0.13242018 49
-105.15649 4.3021402 0.05778861 12
-104.28731 4.273488 0.087956071 21
-104.0299 4.3575792 0.07312274 101
-103.40796 4.3039613 0.082238019 35
-91.138252 4.2095828 0.032943428 21
-90.03479 4.2997551 0.023093343 34
-85.722214 4.3590965 0.082351327 64
-85.396744 4.2566032 0.061828017 129
-84.691284 4.2472978 0.17079973 109
-83.828178 4.3399677 0.097415686 49
-83.797287 4.3602581 0.087901711 53
-65.092491 4.2591791 0.14659341 196.33333
-64.860092 4.2821307 0.12094268 226.5
-109.59878 4.5702333 0.11440754 13
-107.55593 4.5460663 0.09982872 66
-106.23271 4.4151583 0.071187973 12
-103.82523 4.5401525 0.12105894 39
-85.711746 4.5232277 0.10172778 45.5
-85.545738 4.4564867 0.07849133 55
-83.820473 4.458168 0.093576074 28
-80.289429 4.5104418 0.013410091 91
-62.622227 4.5544214 0.10301566 149
-62.08873 4.4995184 0.011933863 393.5
-61.163139 4.5687065 0.0056825876 262
-8.4545145 4.5761514 0.14248551 99
-106.98708 4.733532 0.084989905 25
-103.57028 4.6236696 0.080560446 26
-91.570221 4.6590567 0.050442457 59
-89.17923 4.7342043 0.020620584 57
-83.762703 4.6901169 0.081118345 65
-78.897957 4.7510748 0.0069988966 63
-69.334198 4.7837086 0.012142837 93
-62.589733 4.6814356 0.1188274 239
-61.582458 4.6941891 0.019293308 319
-61.037582 4.7290697 0.039161563 336
-60.753204 4.7442727 0.0037018061 188
-9.6122169 4.6699762 0.16127658 298
-9.5216579 4.6788092 0.054503188 193
-9.219595 4.6432314 0.098228671 185.5
-9.0252218 4.7312546 0.19835171 240
-8.8378582 4.6686368 0.069185212 302.5
-111.73164 4.8545465 0.11948109 42
-105.01536 4.9604998 0.052251101 28
-103.01666 4.9780045 0.087688923 46
-101.93484 4.8002868 0.063652396 55
-91.759964 4.9956412 0.016789556 38
-84.343163 4.9439459 0.064305544 132
-83.817047 4.8252201 0.09129107 41
-83.77681 4.9311008 0.070224226 48.5
-69.277489 4.8590779 0.13368256 267.66666
-61.296192 4.8994827 0.017929018 376
-111.95126 5.0109358 0.19451904 36
-106.85652 5.0336123 0.11363006 46
-106.46556 5.012969 0.064589024 20
-104.97137 5.1864681 0.082162857 97
-103.69718 5.0454035 0.0825454 67
-100.50241 5.0350895 0.02474916 33
-89.289558 5.157052 0.032640696 28
-88.015488 5.132894 0.024658084 157
-84.496674 5.0742149 0.081249714 24
-84.008194 5.0276093 0.074203849 31
-69.331345 5.0301347 0.010533571 148
-61.273563 5.021903 0.089436173 334
-60.297447 5.197257 0.020729274 118
-111.13288 5.3818464 0.1104846 15
-109.10964 5.2764778 0.08742249 21
-106.31447 5.3672771 0.090475559 12
-103.16165 5.3339901 0.11289763 60
-93.688171 5.3253131 0.066696487 165.33333
-89.018784 5.3009167 0.012143373 90
-88.769249 5.3742151 0.0043951273 94
-88.133514 5.2703862 0.059531093 123.5
-87.962273 5.2978182 0.077647567 77.5
-60.665173 5.3786058 0.0088049173 372
-60.47794 5.3289814 0.022787273 322
-60.16201 5.3311853 0.029260337 413
-109.61461 5.5618086 0.17214406 30
-107.55932 5.4461842 0.084023595 62
-104.91607 5.5378246 0.067939281 69
-103.61113 5.5812311 0.05625391 28
-101.28137 5.5363078 0.076069713 62
-88.95018 5.5487232 0.0099599361 111
-86.616463 5.5688639 0.010855436 37
-69.520027 5.5041046 0.13308823 204
-69.052536 5.4529166 0.080115914 361
-61.466698 5.4661493 0.14516079 227
-61.355904 5.5671272 0.18925267 42
-60.639835 5.4680061 0.054123253 345
-59.959705 5.5972357 0.041242361 164
-59.751907 5.5532641 0.029907942 173
-109.23063 5.6593218 0.086895108 22
-106.26747 5.7952757 0.078071952 17
-101.92925 5.7449579 0.011509299 121
-86.662163 5.7762322 0.038266182 27
-75.317604 5.7721734 0.085807323 246
-74.845642 5.7299228 0.092989922 241
-72.568726 5.7832732 0.11848062 102
-72.050308 5.6627488 0.0057581663 19
-71.831192 5.7189178 0.033576965 16
-69.506699 5.7206311 0.021407604 192
-66.339005 5.7769766 0.11619627 203
-66.165573 5.7578073 0.18632293 28
-61.473866 5.6589808 0.13820726 139
-59.90062 5.6532478 0.026548982 131
-59.670925 5.7060909 0.046515435 137.5
-54.137863 5.7914276 0.14112425 170
-44.373291 5.7032752 0.010191351 143
-44.19212 5.6702504 0.012534365 233.5
-42.696205 5.7618904 0.034119859 228
-42.391563 5.7759824 0.0086187422 427
-41.352657 5.7626152 0.012670606 288
-21.393183 5.7583561 0.16437639 112
-21.189688 5.7977037 0.010221899 116
-8.9161959 5.7552199 0.0044958144 242
-4.0506082 5.7471371 0.10897458 217.83333
-3.9305611 5.7551408 0.07509955 366.5
-110.48018 5.9921808 0.12503684 16
-109.70283 5.8221989 0.11743903 14
-109.23336 5.8047266 0.07923758 25
-106.5495 5.8838997 0.14889085 41
-104.56815 5.9371948 0.069693923 39
-103.68867 5.924777 0.10180235 34
-101.67548 5.9459143 0.03458035 64
-91.905518 5.8619318 0.048251867 39
-90.805344 5.8825932 0.057947397 40
-89.151443 5.8682852 0.022757411 157
-75.669785 5.8982091 0.10271701 10
-75.46476 5.9840794 0.10367274 30.5
-75.278145 5.8795476 0.033815105 36
-74.697968 5.9796128 0.065011583 37
-72.951553 5.8993759 0.025718927 11
-72.736435 5.9689865 0.041676521 98
-72.279549 5.8018093 0.054298043 940
-72.072083 5.8915291 0.067799926 46.5
-71.806335 5.8132234 0.19530702 56
-66.465515 5.8753881 0.028219938 228.5
-66.316391 5.8751612 0.1687687 108
-54.68362 5.9302344 0.05851233 571.5
-54.155071 5.9032793 0.14340039 471.5
-46.110233 5.8784924 0.015195809 314.5
-45.585068 5.9376936 0.12092915 302
-45.230885 5.9060526 0.13505797 324.5
-45.19389 5.8576865 0.096899301 392
-44.86573 5.8966937 0.084043264 400
-44.622532 5.8845615 0.10977298 169
-44.452221 5.9100089 0.12093963 314.5
-44.287689 5.9127188 0.16517483 373
-44.083618 5.9199114 0.13247234 391
-43.672836 5.9366856 0.089164853 333.5
-43.175076 5.8931108 0.13652715 336
-42.955467 5.8584247 0.10864568 402
-42.632282 5.9588776 0.01886946 229
-42.560276 5.8076301 0.083433002 268
-42.177223 5.8378363 0.077961743 268
-41.920864 5.8312864 0.0050531328 109
-41.641655 5.9002461 0.07821314 184.8
-41.462471 5.9504671 0.055545866 333.5
-41.360031 5.8074179 0.0042489171 284
-40.797569 5.964643 0.021390498 187
-35.637642 5.9187436 0.15886635 123.5
-35.460224 5.9638925 0.063637614 50.5
-35.354977 5.989573 0.13452017 32
-21.437332 5.8365822 0.07318978 164
-21.30617 5.819129 0.07519228 215.75
-21.186571 5.8101883 0.15388229 125
-8.9374609 5.8759623 0.067328848 59
-3.9663372 5.856904 0.025212616 242
-3.7744603 5.8589401 0.049205638 339.5
-111.36345 6.1824942 0.11945927 33
-91.376183 6.005836 0.066625834 57
-75.784012 6.1349044 0.04059732 14
-54.643715 6.0599642 0.048031032 375
-54.529064 6.0720286 0.094927303 486
-54.389484 6.0875134 0.15565562 468
-46.139843 6.1775379 0.1303498 281.5
-45.870426 6.1861782 0.15746439 326
-45.636894 6.1025686 0.081639796 272.5
-45.519337 6.055562 0.17783128 285.5
-45.348675 6.0535617 0.10574035 289.79999
-44.712269 6.1134839 0.16792107 406.66666
-44.448856 6.1609516 0.10900897 269
-43.654552 6.1144047 0.14671426 321
-43.590885 6.1092615 0.15723354 239
-43.221638 6.170948 0.17201775 422
-43.047298 6.0800338 0.14223653 419
-42.966797 6.0931354 0.16455187 189
-42.582657 6.0643549 0.13588685 324
-42.273201 6.0082216 0.036755532 257
-41.986191 6.0242796 0.0075858235 269
-41.105259 6.1408896 0.05301246 419
-40.695045 6.0574865 0.033978909 297.5
-40.480656 6.1410604 0.011541903 300
-40.373684 6.1458774 0.015909612 380
-35.600674 6.1454639 0.055334389 45
-35.563568 6.0852108 0.082083136 53.5
-21.274904 6.085505 0.10645858 257.60001
-19.62351 6.1987033 0.13130388 269
-12.031161 6.1576276 0.082996845 230
-11.902667 6.1481905 0.10348542 366.625
-11.797695 6.1535521 0.085719712 251
-3.7293518 6.1336613 0.071283005 264.875
-111.334 6.3758745 0.1205864 35
-106.00034 6.3225899 0.098656058 15
-104.78963 6.3395967 0.0505445 108
-102.61578 6.3491144 0.026898742 48
-101.77029 6.3072639 0.010092497 52
-101.37457 6.3914227 0.039292574 51
-92.176086 6.383812 0.057541609 36
-89.394135 6.2375479 0.059520245 95
-69.943336 6.3695712 0.16273487 69
-67.961746 6.3952408 0.1129396 125
-64.81192 6.2547469 0.12732452 366
-64.126144 6.3262501 0.030671239 35
-63.911213 6.3294725 0.11945558 101
-52.841301 6.3351269 0.12508899 212.75
-46.11808 6.3136024 0.075261876 315.5
-45.977924 6.2734113 0.1637594 254
-45.371002 6.3014879 0.17664528 308
-44.005005 6.2589521 0.15054302 354
-43.360939 6.2117357 0.11461124 388
-42.887726 6.2994385 0.15267697 314
-42.569584 6.2071924 0.16618741 310
-42.175911 6.3548937 0.16036043 188
-41.255974 6.3737302 0.12331557 269
-41.051472 6.3304796 0.11870727 433
-40.992508 6.2807326 0.0036551356 253
-35.417309 6.326046 0.010225177 31
-19.863691 6.2603683 0.092449874 260
-19.740494 6.247189 0.076316573 401.5
-12.03971 6.202951 0.11185583 224
-11.861502 6.2453256 0.04923775 311.5
-11.794165 6.2301922 0.16927184 162
-9.0624542 6.2866268 0.10566945 137
-3.739831 6.203887 0.158732 400.5
-111.76384 6.5192957 0.18364906 28
-108.32364 6.5654345 0.087213874 33
-107.25343 6.4399872 0.099436283 31
-105.85558 6.5838728 0.06488359 41
-104.62255 6.4119682 0.043265104 53
-102.95692 6.4922428 0.040644884 89
-101.8567 6.4747472 0.049026966 39
-101.20171 6.4770288 0.04290092 27
-91.546944 6.4457588 0.073676586 42
-87.608299 6.5874443 0.013041019 74
-69.968414 6.529201 0.066453457 69
-68.195518 6.5182877 0.036057234 168
-67.929466 6.4091029 0.16216135 158
-67.754936 6.4991465 0.18322033 127
-58.242104 6.5077848 0.083661705 194.5
-58.082764 6.545939 0.13859569 219.39999
-57.950783 6.5366254 0.11475444 30
-52.910435 6.4565229 0.14833955 204.5
-46.910126 6.5470381 0.08667779 240
-46.713531 6.5570674 0.17619203 374
-43.339485 6.4062209 0.1292153 325
-42.837196 6.439826 0.15686858 358
-42.612305 6.5445709 0.11907643 318
-42.044121 6.4574952 0.10836303 291
-41.617794 6.4163394 0.12342992 254
-41.102299 6.4014444 0.081367195 324
-40.93412 6.4074345 0.083771855 290
-40.071335 6.5381527 0.17595898 200
-39.959202 6.5357118 0.14249204 308
-19.750565 6.4443922 0.18440793 130
