# .PCD v0.7 - Point Cloud Data file format
VERSION 0.7
FIELDS x y z intensity roll pitch yaw time
SIZE 4 4 4 4 4 4 4 8
TYPE F F F F F F F F
COUNT 1 1 1 1 1 1 1 1
WIDTH 166
HEIGHT 1
VIEWPOINT 0 0 0 1 0 0 0
POINTS 166
DATA ascii
0 0 0 0 0.014551811 -0.015538721 0 1.567496e+09
-1.0121188 0.0043113842 0.0095939087 1 0.014618179 -0.011651706 -0.00010424995 1.567496e+09
-2.1852536 0.005880239 0.02348683 2 0.013994599 -0.010623865 -0.00035160006 1.567496e+09
-3.4084759 0.010058119 0.032360349 3 0.01346884 -0.009311079 -0.00067528972 1.567496e+09
-4.6363144 0.01458192 0.0403152 4 0.012768689 -0.010170148 -0.00064410683 1.567496e+09
-6.0363536 0.0088330237 0.039141569 5 0.013404788 -0.012066323 0.00069667707 1.567496e+09
-7.2922368 0.019459879 0.063297108 6 0.011290071 -0.011939756 0.0016070206 1.567496e+09
-8.2997656 0.013650938 0.075413719 7 0.0113199 -0.011144281 0.002441583 1.567496e+09
-9.3529854 0.014262136 0.074029639 8 0.011426178 -0.011550467 0.0033633388 1.567496e+09
-10.460503 0.0019012977 0.094804853 9 0.010852983 -0.011555703 0.0043496825 1.567496e+09
-12.410084 -0.0062734885 0.11994473 10 0.012131011 -0.008301557 0.0062746773 1.567496e+09
-13.618987 -0.018088492 0.14028035 11 0.012618362 -0.0062771221 0.0072093327 1.567496e+09
-14.886728 -0.026717482 0.14485674 12 0.013424797 -0.0069311601 0.0076751704 1.567496e+09
-16.191347 -0.04168715 0.17431544 13 0.01463548 -0.010848841 0.0074823136 1.567496e+09
-17.535162 -0.055402353 0.18301731 14 0.015229564 -0.0079401257 0.0081815086 1.567496e+09
-18.917082 -0.066152759 0.21123745 15 0.015262169 -0.0067527671 0.0080371825 1.567496e+09
-20.336914 -0.092681818 0.20093411 16 0.018115839 -0.0089787496 0.0087725688 1.567496e+09
-21.764843 -0.081705868 0.24207519 17 0.015541226 -0.0091346093 0.0088433893 1.567496e+09
-23.705107 -0.091814876 0.23441276 18 0.016232817 -0.013047277 0.0097417599 1.5674961e+09
-25.653015 -0.14736055 0.28157735 19 0.01705775 -0.014781877 0.018915717 1.5674961e+09
-27.108393 -0.16674954 0.30782101 20 0.012683116 -0.01034332 0.033815924 1.5674961e+09
-29.064188 -0.32166091 0.32417163 21 0.018522421 -0.0048586573 0.054574635 1.5674961e+09
-30.550611 -0.43727943 0.35030124 22 0.016974185 -0.01012626 0.070113607 1.5674961e+09
-32.034866 -0.57488024 0.38757765 23 0.027110552 -0.013698255 0.084351316 1.5674961e+09
-33.524223 -0.72741252 0.38717008 24 0.02058056 -0.008423375 0.098917894 1.5674961e+09
-34.521008 -0.83648825 0.42269444 25 0.017327491 -0.0074882898 0.10721416 1.5674961e+09
-35.518589 -0.98002952 0.43654516 26 0.021894978 -0.0037612079 0.11401101 1.5674961e+09
-38.052536 -1.2859815 0.48151934 27 0.019548912 -0.0056666322 0.12139949 1.5674961e+09
-40.13348 -1.5127317 0.51499772 28 0.011471231 -0.011681085 0.12040318 1.5674961e+09
-41.179413 -1.6234226 0.5320251 29 0.0099082952 -0.011388915 0.11932509 1.5674961e+09
-42.76952 -1.7938355 0.54653049 30 0.0048798034 -0.0091544939 0.11747103 1.5674961e+09
-43.841087 -1.921283 0.57590944 31 0.0035358605 -0.0091534108 0.11488678 1.5674961e+09
-44.935844 -2.0409877 0.58287913 32 0.0076894173 -0.0088805659 0.1138641 1.5674961e+09
-46.031216 -2.1682506 0.59293294 33 0.0047299331 -0.0077680484 0.11362518 1.5674961e+09
-48.254993 -2.4257257 0.63875198 34 0.0058435374 -0.0082783597 0.11703517 1.5674961e+09
-49.963627 -2.6324618 0.63775259 35 0.0071493201 -0.0075859739 0.12205096 1.5674961e+09
-51.115883 -2.7695646 0.67459548 36 0.0014984451 -0.010431314 0.12634747 1.5674961e+09
-52.271061 -2.9368603 0.71078843 37 0.0083504347 -0.0097462945 0.13093884 1.5674961e+09
-54.037273 -3.1919961 0.72504073 38 0.0093266461 -0.0056388131 0.14147216 1.5674961e+09
-55.239922 -3.3867059 0.75350338 39 0.014293849 -0.0081728064 0.14797926 1.5674961e+09
-56.43576 -3.58143 0.76274413 40 0.017911104 -0.010254106 0.15435463 1.5674961e+09
-57.650742 -3.7812998 0.780577 41 0.017218636 -0.008867994 0.16019583 1.5674961e+09
-58.862656 -3.9889846 0.80747104 42 0.018508736 -0.0066383551 0.1659247 1.5674961e+09
-60.085953 -4.1993618 0.81889766 43 0.016962444 -0.0051268404 0.17224617 1.5674961e+09
-61.308395 -4.4176531 0.85115141 44 0.015742805 -0.0055240439 0.17797594 1.5674961e+09
-62.517876 -4.6428828 0.86990732 45 0.015585246 -0.004803204 0.18364267 1.5674961e+09
-63.725075 -4.8732052 0.89576209 46 0.014051767 -0.0036978654 0.18940826 1.5674961e+09
-65.526436 -5.239399 0.94512075 47 0.012767848 -0.0041312133 0.19710313 1.5674961e+09
-66.706322 -5.4778714 0.96648592 48 0.012909808 -0.0034053505 0.19938487 1.5674961e+09
-68.484543 -5.8312325 1.0045508 49 0.01159732 -0.0017413849 0.19948359 1.5674961e+09
-70.254181 -6.1709294 1.0570476 50 0.0093425503 -0.0022759887 0.19845375 1.5674961e+09
-71.432419 -6.4086599 1.0780528 51 0.010589289 -0.0034429869 0.19752853 1.5674961e+09
-73.157646 -6.7362223 1.1218616 52 0.010169608 -0.0035146233 0.19484416 1.5674961e+09
-74.285667 -6.9601836 1.1456741 53 0.012291991 -0.0042575495 0.19241957 1.5674961e+09
-75.359085 -7.1542845 1.1678902 54 0.011678941 -0.0078037106 0.18971424 1.5674961e+09
-76.898392 -7.4334474 1.2088084 55 0.00905143 -0.010085849 0.18548347 1.5674961e+09
-78.320992 -7.6972175 1.2410702 56 0.0068617091 -0.010968911 0.18216525 1.5674961e+09
-80.060089 -7.9932919 1.2864996 57 0.004149165 -0.010915553 0.17910118 1.5674961e+09
-81.232834 -8.1969795 1.3053042 58 0.0027154379 -0.011225428 0.17735885 1.5674961e+09
-82.583008 -8.430829 1.3369995 59 0.00083220785 -0.012916342 0.17589152 1.5674961e+09
-84.739853 -8.8257151 1.3730628 60 -0.00021905445 -0.0093026375 0.17967136 1.5674961e+09
-85.937599 -9.0447598 1.3980421 61 -0.0013110362 -0.0046790675 0.18329006 1.5674961e+09
-86.932968 -9.2409487 1.420686 62 -0.00059039932 -0.0032682635 0.18753558 1.5674961e+09
-88.088318 -9.493721 1.4558251 63 -0.001828119 -0.0013867168 0.20496617 1.5674961e+09
-89.100945 -9.7412691 1.4688345 64 1.0691498e-06 -0.0016843618 0.22198416 1.5674961e+09
-90.317085 -10.050791 1.4841032 65 -0.00084899709 -0.00254493 0.24272344 1.5674961e+09
-91.745026 -10.494884 1.5225089 66 0.012990818 -0.0092083877 0.27261358 1.5674961e+09
-93.016045 -10.895646 1.5505453 67 -0.0024727858 -0.0040664594 0.30299848 1.5674961e+09
-94.403374 -11.438495 1.5686297 68 0.014713288 -0.0025816807 0.33772743 1.5674961e+09
-95.509331 -11.874402 1.5920241 69 0.0033216588 -0.0040218495 0.36842838 1.5674961e+09
-96.668098 -12.408031 1.621034 70 0.014405602 -0.0031205127 0.40010399 1.5674961e+09
-97.87619 -12.991811 1.6343478 71 0.011578516 -0.0019924405 0.43627053 1.5674961e+09
-99.11187 -13.669726 1.6707827 72 0.013292938 -0.0012883305 0.47413772 1.5674961e+09
-100.39043 -14.429358 1.6872723 73 0.01157785 -0.0011629806 0.5161429 1.5674961e+09
-101.24693 -14.982213 1.7085568 74 0.010335258 -0.002351871 0.54532528 1.5674961e+09
-102.97915 -16.211033 1.7368771 75 0.0098884637 -0.0068029147 0.60650945 1.5674961e+09
-103.84695 -16.887787 1.7583394 76 0.0081312377 -0.0080139125 0.63831204 1.5674961e+09
-104.71157 -17.610853 1.7759628 77 0.0093438774 -0.0081251785 0.66981483 1.5674961e+09
-105.58577 -18.369902 1.7757978 78 0.0088901976 -0.010090611 0.7005384 1.5674961e+09
-106.45188 -19.163816 1.7889645 79 0.0073342286 -0.010406738 0.72603625 1.5674961e+09
-107.32813 -19.98654 1.8060576 80 0.0063396995 -0.0087145446 0.74671406 1.5674961e+09
-108.20733 -20.851143 1.8190813 81 0.0053746812 -0.0087682512 0.76468533 1.5674961e+09
-109.99118 -22.64501 1.8692704 82 0.005563363 -0.0019213125 0.78911674 1.5674961e+09
-111.34876 -24.047491 1.9098589 83 0.0087731471 0.0023571088 0.7967099 1.5674961e+09
-112.28673 -24.999334 1.9416479 84 0.0090208268 -0.0011633165 0.79546392 1.5674961e+09
-113.74207 -26.453659 1.9805518 85 0.010878466 -0.0034108753 0.78826338 1.5674961e+09
-114.72913 -27.425497 2.0095115 86 0.010857304 -0.00082282926 0.78328735 1.5674961e+09
-116.25162 -28.911362 2.0547683 87 0.012894833 -0.0023492223 0.77636373 1.5674961e+09
-117.82548 -30.426708 2.0816422 88 0.012700608 -0.0072153821 0.7702117 1.5674961e+09
-119.99336 -32.474876 2.1308179 89 0.01147175 -0.0040140511 0.76274538 1.5674961e+09
-121.66174 -34.039429 2.1725297 90 0.013125699 -0.008209534 0.75729448 1.5674961e+09
-122.79755 -35.098942 2.1861145 91 0.012781365 -0.011677046 0.75362593 1.5674961e+09
-123.95474 -36.162811 2.205682 92 0.012064293 -0.011900899 0.74994957 1.5674961e+09
-125.12177 -37.227081 2.2251585 93 0.010907171 -0.009561317 0.74632424 1.5674961e+09
-126.30457 -38.296684 2.2494648 94 0.0099534169 -0.0082143461 0.7426427 1.5674961e+09
-127.49634 -39.373348 2.2717755 95 0.011107911 -0.0077964785 0.73835021 1.5674961e+09
-128.70564 -40.455906 2.2941029 96 0.011347788 -0.0087004201 0.73285228 1.5674961e+09
-131.1545 -42.607048 2.3461998 97 0.014736618 -0.0067420951 0.7194649 1.5674961e+09
-132.40736 -43.670368 2.3760235 98 0.014634226 -0.011291749 0.70994943 1.5674961e+09
-133.67821 -44.729752 2.3875282 99 0.015937207 -0.010598169 0.69939792 1.5674961e+09
-135.62596 -46.30397 2.4217107 100 0.015577599 -0.0091587156 0.67983264 1.5674961e+09
-136.94696 -47.323456 2.4479804 101 0.013632449 -0.0074408962 0.66678149 1.5674961e+09
-138.96762 -48.836319 2.4882846 102 0.010684218 -0.0052144267 0.64739263 1.5674961e+09
-140.33449 -49.826328 2.5304203 103 0.0087511223 -0.005774423 0.6344564 1.5674961e+09
-144.54695 -52.693584 2.6458535 104 0.0061634071 0.0014010642 0.59214294 1.5674961e+09
-146.71291 -54.056522 2.7130828 105 0.006439283 0.0039751939 0.56635529 1.5674961e+09
-148.18051 -54.941376 2.77158 106 0.0071529588 0.0054255328 0.54688758 1.5674961e+09
-149.65445 -55.783772 2.8254421 107 0.0081272814 0.0093882233 0.52544159 1.5674961e+09
-151.14265 -56.594669 2.886754 108 0.0083713522 0.0087712407 0.5036037 1.5674961e+09
-152.6631 -57.370453 2.9450254 109 0.0085708741 0.010367842 0.4820379 1.5674961e+09
-154.18706 -58.108158 3.0067425 110 0.0086666839 0.011042187 0.46058264 1.5674961e+09
-155.71298 -58.814816 3.0779896 111 0.009614937 0.011438984 0.43975481 1.5674961e+09
-157.25276 -59.487286 3.1286678 112 0.0095207021 0.011285821 0.41878307 1.5674961e+09
-158.80899 -60.125877 3.1865544 113 0.010798262 0.0105605 0.39811498 1.5674961e+09
-160.38611 -60.734222 3.2505152 114 0.009097253 0.013045575 0.37989685 1.5674961e+09
-161.96542 -61.318737 3.306164 115 0.0076262252 0.012306885 0.36379349 1.5674961e+09
-163.56721 -61.88316 3.3586638 116 0.0061660483 0.0095199849 0.34822035 1.5674961e+09
-165.16536 -62.423653 3.4126289 117 0.0070250682 0.0084267436 0.33237442 1.5674961e+09
-166.77397 -62.931667 3.4710908 118 0.0063502067 0.011172298 0.31481996 1.5674961e+09
-168.41905 -63.4165 3.5254359 119 0.0058025573 0.0043812259 0.29499668 1.5674961e+09
-171.70663 -64.27475 3.6109519 120 0.003907098 0.011256004 0.25723612 1.5674961e+09
-173.37643 -64.675873 3.6722071 121 0.0035701259 0.010890102 0.23952845 1.5674961e+09
-175.05739 -65.043365 3.7214365 122 0.0034779904 0.0085744066 0.22232048 1.5674961e+09
-176.7477 -65.376862 3.7647114 123 0.0023807164 0.0099701453 0.20606445 1.5674961e+09
-179.29512 -65.84317 3.8553178 124 -0.0020466002 0.011192962 0.18739866 1.5674961e+09
-181.00581 -66.129807 3.9117532 125 -0.0041124281 0.011403638 0.17460552 1.5674961e+09
-182.73206 -66.402306 3.9865654 126 -0.0072201728 0.012065563 0.16228901 1.5674961e+09
-184.4617 -66.649261 4.0429144 127 -0.0085843736 0.011815431 0.1501513 1.5674961e+09
-187.07828 -66.991844 4.1426554 128 -0.0083159888 0.010844054 0.13178807 1.5674961e+09
-189.71358 -67.294365 4.2352924 129 -0.0043867338 0.0075668576 0.11408563 1.5674961e+09
-192.35223 -67.543365 4.3113785 130 -0.0022802558 0.0038898392 0.097896151 1.5674961e+09
-194.09874 -67.696465 4.3699059 131 -0.0011322737 0.0018703305 0.088465512 1.5674961e+09
-198.39812 -67.982918 4.5074015 132 0.0015745548 0.0072197868 0.060061857 1.5674961e+09
-200.09888 -68.051346 4.5515928 133 0.00059670809 0.005630685 0.046249054 1.5674961e+09
-201.81294 -68.089943 4.6200824 134 0.00084425823 0.0093382923 0.030816127 1.5674961e+09
-203.53186 -68.100426 4.6597009 135 -0.0010687463 0.0046369634 0.016098848 1.5674961e+09
-206.95071 -68.062782 4.7505164 136 -0.002565485 0.0080508282 -0.013029817 1.5674961e+09
-209.51897 -67.971703 4.839818 137 -0.0025066999 0.0070195771 -0.032692473 1.5674961e+09
-211.23979 -67.894699 4.8900094 138 -0.0015549561 0.0067120022 -0.045025479 1.5674961e+09
-212.95174 -67.786072 4.9368 139 -0.0011612781 0.004394698 -0.057566211 1.5674961e+09
-214.67142 -67.658562 4.9811983 140 -0.0020015552 0.0031214957 -0.070304394 1.5674961e+09
-216.39777 -67.501312 5.0332642 141 -0.0028481628 0.0041177804 -0.083968863 1.5674961e+09
-218.12341 -67.323418 5.0833592 142 -0.0024822913 0.0041307583 -0.09565527 1.5674961e+09
-221.57124 -66.927261 5.1894398 143 -0.0022317464 0.0034457338 -0.11585145 1.5674961e+09
-224.16252 -66.591019 5.2611632 144 -0.00083613623 0.0046158354 -0.13020399 1.5674961e+09
-228.48969 -65.914001 5.3844862 145 -0.0029018272 0.0020442319 -0.15916607 1.5674961e+09
-237.92885 -63.913448 5.6968689 146 -0.010833896 0.0096275592 -0.23441418 1.5674961e+09
-239.63034 -63.481602 5.7699318 147 -0.011314704 0.011534642 -0.24710625 1.5674961e+09
-241.32899 -63.024078 5.8247976 148 -0.01112934 0.0098029627 -0.25689739 1.5674961e+09
-243.00488 -62.553108 5.8994751 149 -0.006958656 0.0082589071 -0.26973146 1.5674961e+09
-246.3221 -61.512897 5.9702997 150 -0.0077941241 0.0017310826 -0.30637237 1.5674961e+09
-249.57526 -60.335526 6.0739646 151 -0.0082182819 0.0058059255 -0.35079706 1.5674961e+09
-251.20555 -59.685432 6.1138339 152 -0.0070915632 0.0015546856 -0.37373215 1.5674961e+09
-252.80753 -58.997906 6.1652632 153 -0.008242215 -0.0027721785 -0.39757702 1.5674961e+09
-256.74854 -57.105797 6.2713761 154 -0.0099232299 0.0026316401 -0.45715034 1.5674961e+09
-259.08163 -55.853043 6.3446841 155 -0.011820621 -0.0034106148 -0.49307579 1.5674961e+09
-260.6073 -54.966095 6.3771172 156 -0.010604913 -0.0014948121 -0.51641291 1.5674961e+09
-262.1004 -54.058178 6.4227886 157 -0.012194095 -0.0011431847 -0.53582674 1.5674961e+09
-264.30899 -52.675121 6.5038133 158 -0.01218361 0.00053158251 -0.56161684 1.5674961e+09
-265.74915 -51.723698 6.5316949 159 -0.013443025 -0.0015270099 -0.57612884 1.5674961e+09
-267.16302 -50.756538 6.5860295 160 -0.014741331 -0.0015585509 -0.58973455 1.5674961e+09
-268.5506 -49.789516 6.6308198 161 -0.014449337 0.0015148976 -0.60373867 1.5674961e+09
-269.92191 -48.790977 6.6768661 162 -0.015829038 -0.00036643402 -0.6171335 1.5674961e+09
-271.26807 -47.796043 6.730125 163 -0.016094422 -0.00097112946 -0.63076383 1.5674961e+09
-273.89023 -45.763779 6.8172121 164 -0.014234713 0.0039272015 -0.66035461 1.5674961e+09
-275.79156 -44.194221 6.8955216 165 -0.013999213 0.0045097345 -0.68585831 1.5674961e+09
